ply
format ascii 1.0
element vertex 855
property double x
property double y
property double z
end_header
-1.334525394833861 -1.564407948534068 2.569280370636317
-1.354428910881916 -1.570118385698631 2.544369321213469
-1.304929295005227 -1.544492149748163 2.613665897243222
-1.343991403388185 -1.570611781407032 2.540039400318133
-1.276507107875039 -1.558789061731284 2.574079981713878
-1.266291140671324 -1.545783932420095 2.574847002279155
-1.312893513602912 -1.562698929278409 2.593795499975159
-1.273453261061616 -1.537723864936660 2.599111441671289
-1.383057492633514 -1.581746422432818 2.538231533649101
-1.277644738149582 -1.548471015182519 2.593683579426780
-1.348790935821170 -1.574767064058541 2.540756690712914
-1.294573141316632 -1.538367586146341 2.613069639832721
-1.335386469005264 -1.564701393514402 2.561037831304173
-1.268860269606257 -1.521434945993640 2.604826207508562
-1.311114806582806 -1.574003091654369 2.526407374452348
-1.270608345080517 -1.524763501578170 2.602790769141772
-1.301787060445433 -1.572785378586087 2.568481489100141
-1.345322519936637 -1.543720491105418 2.605064755361136
-1.423064847863527 -1.528590555698183 2.574936252085702
-1.318432630804368 -1.543404320348976 2.614471316770301
-1.298675746084145 -1.543298164165191 2.611197498822612
-1.362792116228032 -1.583626344021930 2.535108501695427
-1.311292253267527 -1.542579759198899 2.615816641397411
-1.416642795061566 -1.531857336508667 2.571676782335662
-1.288275410333698 -1.553475551907239 2.598099148211692
-1.270599232351213 -1.550181063563824 2.587290105435145
-1.308398199496495 -1.527601176386638 2.619770446799516
-1.386508281056189 -1.561958884172182 2.542270245349359
-1.288104182645957 -1.563992126397412 2.564844313977044
-1.287228943357558 -1.560687518489185 2.587109450401043
-1.355047128983847 -1.582410182824898 2.537643699790994
-1.302401903466249 -1.571049198039022 2.575131623378641
-1.271859324172580 -1.522433064326080 2.606991281279924
-1.321638213148291 -1.557408056905398 2.591788973041104
-1.403934719417831 -1.530986302798668 2.569912490649354
-1.290341341886174 -1.562137888565275 2.587403355917826
-1.296595261242677 -1.559376369718740 2.528008796109955
-1.318829015230992 -1.519085458249359 2.619965796179669
-1.283078560902157 -1.556223484955768 2.530729791452580
-1.344184686206157 -1.553189255803775 2.595743313171198
-1.287496412205053 -1.554743260085436 2.596957858656642
-1.329425115207231 -1.578423967996119 2.525189436457454
-1.384970980385845 -1.567732235177417 2.542488255344352
-1.361288151010937 -1.597004518511953 2.529996953524465
-1.297072231532151 -1.557907589415498 2.597924852044635
-1.385108211871648 -1.547509579836365 2.551607355052744
-1.298333881748088 -1.553413485044512 2.604237371303450
-1.323560909864057 -1.570838551804060 2.546597813076039
-1.298323491965202 -1.535560718936334 2.615174938589221
-1.272787869257889 -1.538071133774002 2.598408368949157
-1.311918651435366 -1.553655470771435 2.606322778476178
-1.301206740450963 -1.543004183381041 2.612984230904020
-1.271590217622039 -1.558036403079791 2.532253857377210
-1.290311644702532 -1.549023469961019 2.603975531561321
-1.387647745423533 -1.555172927004024 2.548516431399685
-1.306867836784946 -1.545399607253281 2.613394949560155
-1.295982807180035 -1.529594850109718 2.616348829586542
-1.347787311992075 -1.522834599802033 2.607810451214407
-1.291396103404582 -1.554551524377852 2.548398590620185
-1.359014506392373 -1.599079693167989 2.527611168250398
-1.349470608317211 -1.589565145277681 2.534377238182317
-1.323906468467836 -1.551866961894685 2.605181643201612
-1.395312983344196 -1.531732931032903 2.572608638387550
-1.316930651994627 -1.523610648695663 2.620661616648270
-1.320436871073031 -1.575010353626162 2.509229770469204
-1.279333834551887 -1.519187058196805 2.621121902376746
-1.281915934780775 -1.508988247364407 2.627327352993374
-1.277111673713417 -1.514641739375087 2.623687397198625
-1.392146911345388 -1.558915715349999 2.544681831290726
-1.363582623342297 -1.596208541832731 2.530763678309514
-1.323039408318656 -1.551332668953043 2.606623942538993
-1.329914609605579 -1.547265445857118 2.609220194998040
-1.288976880252958 -1.539694935159743 2.607655136844554
-1.298227704474604 -1.536084453388286 2.615040986628831
-1.373195921026624 -1.591273415970157 2.533986983507069
-1.312791101082867 -1.555466646891472 2.603260136228660
-1.384303442755798 -1.554615837846094 2.546950751588047
-1.382927219989379 -1.559842769467242 2.543613882811348
-1.366966439636964 -1.548665066831787 2.542054995983167
-1.348927466678723 -1.598153660206424 2.526710792783621
-1.262916054654678 -1.556134402983499 2.559585555969949
-1.331701387932295 -1.577127975081983 2.514362364411585
-1.299069755789025 -1.534685782370129 2.616008558726964
-1.291933889351846 -1.530395346022775 2.614560091343883
-1.370482649412625 -1.579416150959419 2.539463694851490
-1.267728393908439 -1.563593660912299 2.516618984107906
-1.330542207537061 -1.572207181407317 2.546774785371209
-1.404411359814148 -1.545957053079715 2.523187800778564
-1.298679799779279 -1.532877744771385 2.616587757984659
-1.333163761069203 -1.575368008293202 2.536719508374836
-1.331460336374372 -1.544151462773396 2.612390282646767
-1.279672697362094 -1.514609493164597 2.624992679186178
-1.268944828970609 -1.536558477301662 2.593243678001972
-1.269701350057016 -1.495915359081715 2.609960024032314
-1.349717736284530 -1.572963809195463 2.542011250795134
-1.313717017377379 -1.562330319242016 2.593642520858621
-1.313942605206816 -1.521154622100772 2.620696168793630
-1.260203782443633 -1.543103515452791 2.576554452795244
-1.331334111785283 -1.531435866250857 2.617710847830854
-1.273250278871828 -1.554137629660579 2.583116168899565
-1.400847735889996 -1.550387448476432 2.523131267950724
-1.270221074997335 -1.497935144906245 2.613289481948452
-1.279250155441429 -1.500687097662498 2.624748669416467
-1.331767620954321 -1.553379938532945 2.599765149556139
-1.369091260902186 -1.583047343824381 2.538153632942238
-1.274126029070631 -1.519957428173486 2.617796677762098
-1.318460149521141 -1.520494246635006 2.620177529809792
-1.295757022647969 -1.560897843309931 2.593760397927594
-1.340612326422726 -1.549729172936219 2.603084880095828
-1.326580017220621 -1.576138912802931 2.535573216264898
-1.262247408998405 -1.557689611746615 2.557175216588243
-1.273295756689184 -1.515091834063595 2.620615166491444
-1.284264934343270 -1.533415335284435 2.610715170423124
-1.288265220290254 -1.545389587204199 2.604436537164322
-1.332855821739982 -1.571923036819702 2.546568207515060
-1.330873490187386 -1.508608099912550 2.615051448438567
-1.293664403177934 -1.524179475697207 2.616598354332608
-1.326981473684745 -1.562030567748461 2.584519530199568
-1.276854363106451 -1.551044194150925 2.590960189273380
-1.263603199582939 -1.550220993628652 2.567804377008063
-1.265559693883116 -1.556449878931669 2.560513275951299
-1.265811794871889 -1.516540563940633 2.608253899679935
-1.275607287894366 -1.521802028284112 2.615116626543738
-1.273819837004132 -1.533406610976589 2.602499204944423
-1.353922163991180 -1.596734819087907 2.529638560023116
-1.367457205240515 -1.574695700437357 2.541487054254599
-1.303915720706686 -1.519719749145728 2.619546708581585
-1.337697530585608 -1.543421468061180 2.610785100268202
-1.366459139456484 -1.568074278788827 2.543303744378798
-1.298661205877248 -1.505452506338695 2.615327369484771
-1.326069494843527 -1.548152680826730 2.609549302089345
-1.272586792858282 -1.554158358021336 2.582808504199671
-1.280768716629805 -1.520439910617023 2.619316252917857
-1.341204276592313 -1.573046311103328 2.536137763417783
-1.366716864255562 -1.566925405498107 2.543435261064200
-1.332522925749049 -1.557105872171064 2.595096559696406
-1.279966448781899 -1.548642214906176 2.596085761914404
-1.344110242795092 -1.556717411420343 2.588477231192919
-1.373297965406304 -1.571442728270436 2.542797656919960
-1.327940261486082 -1.537236847739348 2.616947340316045
-1.301230951993287 -1.548801984901167 2.609411576504002
-1.339479830047632 -1.562840338352935 2.568370050705235
-1.378550005789970 -1.591720967031991 2.526266409104247
-1.301910156975495 -1.548711758806389 2.609628974695136
-1.325150573565035 -1.528873956388574 2.619579730165027
-1.325296821701424 -1.559525818443328 2.588815554348569
-1.349763943251756 -1.598142505559791 2.522547344718984
-1.351677463722637 -1.597779693176442 2.528371895647453
-1.366496835832612 -1.571609463760768 2.542528444439762
-1.275185769387341 -1.506942300810575 2.624230695658861
-1.338457850079198 -1.572570172380551 2.539481018381587
-1.264224194209784 -1.559560780820595 2.555693020577837
-1.334090955854921 -1.578007991962146 2.520501604883901
-1.413152252608747 -1.535651539905146 2.521691026117438
-1.307535609776950 -1.559614109518896 2.599779132578430
-1.348845526348482 -1.597661120606496 2.527715476304092
-1.369564414525761 -1.565115675389540 2.542850239521665
-1.338744961072759 -1.541674323570894 2.611286366011970
-1.274001645017580 -1.557510688758394 2.550398982669914
-1.274528559263933 -1.563513875152013 2.519840217118519
-1.277375516256764 -1.554549799757425 2.536925583425892
-1.265138453692188 -1.528105568568164 2.597088981205755
-1.331405221167733 -1.546878281113006 2.609377252667983
-1.325421433810565 -1.550115346539557 2.606844241403026
-1.309138473427575 -1.567056140830471 2.542526478992050
-1.299968719267507 -1.564026128701102 2.527887050192354
-1.307373521166944 -1.570653745456655 2.518485179763421
-1.327342035748999 -1.520572923113422 2.618504973441891
-1.289347870981899 -1.500531260940810 2.627110297895829
-1.299065277471578 -1.530455935473404 2.617518500311301
-1.328564579542002 -1.563453085477960 2.578449459942902
-1.323821931530161 -1.548123474900311 2.610161155944064
-1.330228633293656 -1.575868007970775 2.536050796273411
-1.389999539311502 -1.555348429546323 2.548079736284690
-1.398663403798973 -1.548723742752850 2.555340745134382
-1.404501948950869 -1.537253058998690 2.563631724318974
-1.366254515264986 -1.579955831419788 2.537361971221773
-1.258455984930649 -1.551093435303406 2.562979186571256
-1.353831984632243 -1.586393596169334 2.535139935088929
-1.340748646835008 -1.548483215504442 2.603917559289262
-1.331967598368267 -1.539558769056455 2.615411811504163
-1.295599141684680 -1.567219698120609 2.582757836593102
-1.352219510727928 -1.563152915161065 2.545066892094376
-1.287104835517661 -1.506780126074111 2.628416526946821
-1.264625179847718 -1.513327481216908 2.606317018272414
-1.273663849985062 -1.563978322100651 2.520119786318528
-1.262206175719383 -1.517546559480537 2.592879412704523
-1.273272864168721 -1.556569454762537 2.579718802356314
-1.330302971094674 -1.540613845874152 2.615313001841550
-1.277304160589858 -1.529051636246433 2.608342646749019
-1.311315458864083 -1.563298022240674 2.593917973978713
-1.336698806100626 -1.551321584435984 2.602696555527595
-1.339356241530548 -1.575908580973361 2.530650245599490
-1.279933533160905 -1.561715442044658 2.575003269971896
-1.300871352097266 -1.528050456474426 2.618316330428754
-1.318960149719301 -1.578310381899850 2.526177056988601
-1.278266365515383 -1.560782851235890 2.522855266071718
-1.266859731123406 -1.521099359017200 2.599744548636402
-1.332803923496100 -1.548640204217268 2.607412520365002
-1.318703052782844 -1.532114185939852 2.619536157760941
-1.404289481223409 -1.546502266590432 2.523084045746106
-1.283408929016676 -1.536774142174184 2.607376572912667
-1.305388675810514 -1.540305586832937 2.616398420176846
-1.271085188417697 -1.554802307657555 2.573238930062154
-1.333014847382713 -1.565763287649655 2.560618334756482
-1.378721652925067 -1.579731828552986 2.543033199549733
-1.399516754107646 -1.554459186088305 2.520752599615014
-1.343945657350700 -1.595616242402803 2.521175144905188
-1.300970479770582 -1.562694332422601 2.545157466956002
-1.369905311141347 -1.560533275376268 2.543061780750474
-1.391990307714704 -1.557530525144904 2.546992260979054
-1.342395505321261 -1.567600598379636 2.548145035928162
-1.333527828930267 -1.576543609768866 2.533307787920695
-1.305427400430355 -1.559356942574238 2.600085401497903
-1.326228500931627 -1.573812280132342 2.507482169927674
-1.327857831378881 -1.562567594899829 2.583079709199892
-1.410394853313790 -1.543645852990649 2.564646882239574
-1.406235378425975 -1.534027208184717 2.566638943901406
-1.280513234028649 -1.540730253534209 2.602990500310393
-1.275380684772614 -1.555222922747684 2.553828268532155
-1.330946773182849 -1.577897803812149 2.529630599054469
-1.294262177584384 -1.567824115006403 2.577584665404515
-1.331017752651197 -1.578068738699162 2.529029011826449
-1.303981116527139 -1.562734613844516 2.548535882588048
-1.409519618068019 -1.530572123135460 2.569997974798079
-1.376263972951255 -1.568779218349771 2.542735282065390
-1.308016955920652 -1.522793222229019 2.620178556364038
-1.403916982357695 -1.532019794374565 2.568796223572190
-1.327928861298775 -1.562753159904156 2.582496756872487
-1.430493529560380 -1.520434975606314 2.514222774372751
-1.278794715630907 -1.548100145156946 2.595521754505017
-1.317604376510705 -1.570379876712493 2.543816717340571
-1.268477476936702 -1.522604113481362 2.601081235213627
-1.300165190691978 -1.570945345661769 2.571994322191950
-1.375761811559852 -1.587020720653402 2.537624912730498
-1.322769533240868 -1.565470699902594 2.568659778825126
-1.332017856785636 -1.567694734583545 2.552229030009522
-1.347415312101725 -1.559816291461746 2.558381296623903
-1.272534545745035 -1.556070551651702 2.543040252035743
-1.310074771226424 -1.570558349875746 2.580169813287847
-1.354748141287995 -1.595470762201182 2.530779419241048
-1.325530128986234 -1.550879008414682 2.605370428503709
-1.350654147997909 -1.548166468118272 2.595542238668980
-1.309960212699739 -1.573588353331674 2.525192032779591
-1.307982038389792 -1.567638010782548 2.540146150371082
-1.359800000360665 -1.591331283916814 2.533075012076259
-1.353098494044155 -1.574001735961190 2.542562259247579
-1.336900960786863 -1.559869082693826 2.587997362800328
-1.319240705319573 -1.523176760038047 2.620264595188189
-1.308981954419648 -1.508437964665021 2.617203426808441
-1.324954782956290 -1.533166133385885 2.618982636956673
-1.340232502049806 -1.583790144547218 2.528017384932878
-1.345149861574787 -1.545034972590442 2.604323335968928
-1.308777332026828 -1.571492534873134 2.534825358250621
-1.304477996076804 -1.572883146360519 2.569126651204355
-1.356264047241207 -1.533249393203658 2.597436629893839
-1.286321330717179 -1.554855319156955 2.595604323469029
-1.282593531996757 -1.553692327344746 2.594525614780519
-1.273830585043840 -1.523657319768367 2.606308769435000
-1.289874801759853 -1.519758992286590 2.615839687625531
-1.280168608620325 -1.556098254477552 2.530885075833447
-1.350093634606987 -1.519411237798502 2.604415893717781
-1.334222339965408 -1.566331099895697 2.557558425716728
-1.329282197772437 -1.551817426693297 2.603319214612345
-1.287862715063871 -1.519970119093681 2.615108846351366
-1.300668982871793 -1.561459929760328 2.548487478031500
-1.352012416717125 -1.587935546091272 2.534866599297590
-1.357675100619298 -1.551038253724206 2.555013879871831
-1.309798211486590 -1.571235937489757 2.537634874458330
-1.271463258190667 -1.559163141820059 2.550750120705082
-1.276181870412153 -1.557962897023952 2.568191867028561
-1.399520603258553 -1.534529594139669 2.568005746247367
-1.364513665623037 -1.573757683561999 2.542233675080095
-1.302060054937948 -1.565233686412035 2.592109867109571
-1.332204252609101 -1.531001806731378 2.617469415644784
-1.341427106050575 -1.589124461286311 2.530627272036607
-1.348637436700987 -1.590190606302722 2.534046845235662
-1.318503846794445 -1.557882388277964 2.600038307142762
-1.331429086052161 -1.544867634961158 2.611682843075605
-1.348251571939737 -1.557380652787806 2.575074663268696
-1.266495930662859 -1.515233874730171 2.610167524425525
-1.302395115044644 -1.545440360892174 2.611089752195911
-1.296472119926345 -1.510844928920365 2.617159819939988
-1.331513946301746 -1.537872666080071 2.616153292517985
-1.267080950127845 -1.560273641533317 2.554668858660309
-1.265115284317970 -1.560831356610706 2.552751181710295
-1.329830112670933 -1.578682917198075 2.526693229688295
-1.311226811021093 -1.543037521178741 2.615595332756790
-1.391409647975508 -1.542330983645694 2.563807950115557
-1.323365475747909 -1.524320551940200 2.619652394172852
-1.415845285571881 -1.518320087764407 2.577240514947146
-1.309796251903880 -1.573005619964645 2.526902392053529
-1.336277185773922 -1.560467415617997 2.586797991054551
-1.281735440519516 -1.561022775714398 2.582043031846565
-1.402360369059031 -1.551681069342272 2.556274196619434
-1.302207918378054 -1.531512400103140 2.618118898453400
-1.325614869135953 -1.565375484776152 2.569042303235111
-1.402726980836312 -1.540550668589825 2.560720446484703
-1.348160906356310 -1.588807692046397 2.534365428864417
-1.324866349333517 -1.577873197553647 2.526604331405190
-1.288534607580274 -1.531172322772166 2.613076959940714
-1.282040102533637 -1.550604154180166 2.544786439765856
-1.267574906186379 -1.563531806106361 2.522644854590117
-1.262277384719951 -1.548081261555097 2.570091504086989
-1.294735477155205 -1.566442960582368 2.584702549118676
-1.317875092917784 -1.493929808711452 2.609928596494707
-1.410073874499691 -1.532848069204273 2.568373794096000
-1.338888176248006 -1.560213879016239 2.584974750825951
-1.295918555768562 -1.564739982823646 2.588086529619992
-1.351528577969174 -1.579994036603275 2.539409965146685
-1.267036490157700 -1.510169133327452 2.613395634941128
-1.269843290009872 -1.552449427769940 2.575245348330781
-1.316717609360641 -1.577052517250305 2.519540390512566
-1.290038748882040 -1.565288809817889 2.564258071026246
-1.364724700501900 -1.558564893183764 2.544766764347905
-1.351307010479130 -1.583699550163936 2.536038675954415
-1.354657204624201 -1.597287357513149 2.529045541065297
-1.279210053261351 -1.558498327535040 2.566111299720147
-1.272776022813330 -1.546547675986672 2.591759362968595
-1.275591798247040 -1.517039452925868 2.621225209273315
-1.397594880248060 -1.531099724228346 2.573584149452392
-1.280007617765509 -1.552514327775444 2.541352540986122
-1.272862088775861 -1.563539704381568 2.516400600991415
-1.303009713787728 -1.545808325265219 2.611086297336481
-1.399529748236618 -1.554026979350975 2.552264331308499
-1.281139989364408 -1.528385986353746 2.611138032481276
-1.354100308629320 -1.577334338915277 2.541018601874846
-1.321601011033970 -1.573332755863998 2.542276838945485
-1.412422018998777 -1.539918178323535 2.566982810039827
-1.289340879917569 -1.558788442296444 2.542250064053303
-1.403480038964262 -1.544715657112270 2.559452724114082
-1.290999931724669 -1.537203526807843 2.611161096598807
-1.306957470075596 -1.564334626810335 2.593275314802508
-1.391421060872615 -1.561693574288647 2.537747698995943
-1.328086371628326 -1.540837650101653 2.615432186363726
-1.344970019937209 -1.563932177514664 2.554555972725707
-1.377421396039738 -1.561717601036726 2.542134271395063
-1.385181231997686 -1.547044775225924 2.551818867313632
-1.323932021369118 -1.549533644628924 2.607887590136233
-1.319428986406232 -1.565885306662385 2.566708499573477
-1.299899788929956 -1.564218416309434 2.523674959264189
-1.409787677936321 -1.547502824380656 2.559480967309815
-1.278737684699223 -1.538514454483878 2.604011737831355
-1.427871566117346 -1.519069010807642 2.516418598917031
-1.281329117774922 -1.527336939253926 2.611404183886535
-1.338437251644058 -1.578449425277138 2.520593858157433
-1.291311953147451 -1.551853090371571 2.602602799441713
-1.292434652060825 -1.559255584415720 2.594868164638747
-1.305403499387596 -1.553559360672531 2.603658296126549
-1.316163159096394 -1.551885152757253 2.608477933713673
-1.401313761992983 -1.532192120456051 2.569703387369592
-1.273744012982691 -1.556389974866333 2.544128189653191
-1.406552488664210 -1.527785978523080 2.572450679327723
-1.272929180498377 -1.519409090947853 2.617227400923692
-1.414990099937794 -1.533263546311811 2.570400660516963
-1.354993092655502 -1.584153620933298 2.535812599650337
-1.306446898460805 -1.502586056304391 2.614890723406762
-1.383885365169192 -1.558365436691171 2.544468650427319
-1.352947611865539 -1.530771966480175 2.601944038592637
-1.274159354224030 -1.519564949743247 2.618104656867279
-1.331769693041361 -1.553703639415991 2.599365692419650
-1.327441106124779 -1.563074715010427 2.580929951197726
-1.302368688196461 -1.530530776189790 2.618474040314045
-1.406395522130964 -1.545033281330783 2.522607623588381
-1.326449710029629 -1.566628025974560 2.563242460496594
-1.335835680674215 -1.520923320020127 2.615191338007507
-1.359288224750381 -1.577864018210465 2.540726371306679
-1.335178495561007 -1.576245469462170 2.532749235878205
-1.344684717406827 -1.554891478312018 2.591364504916204
-1.334508058080313 -1.566750797868233 2.555627123133468
-1.289920951869560 -1.542003448408480 2.607247901414926
-1.297528037810596 -1.557901236548882 2.550380351767038
-1.430543148100804 -1.521700673098153 2.512583388681115
-1.286720520148272 -1.518922844247483 2.619174167254862
-1.266728048322542 -1.560726718964250 2.551631579214895
-1.370257804642200 -1.584417105627497 2.538149498081515
-1.351855321988031 -1.572777512478502 2.542760158010628
-1.377579742033595 -1.581893485192192 2.542258651104723
-1.347315597523651 -1.565190144777351 2.548599574553348
-1.349456759201328 -1.579714861093296 2.538872502729528
-1.392611912677312 -1.544028452919802 2.563405822975629
-1.286069232413687 -1.499750985990044 2.626876588582091
-1.355394192870941 -1.561979499479025 2.545663244443569
-1.338624271264206 -1.579356932135761 2.518483137755425
-1.297790022042405 -1.526857509204258 2.617535369108599
-1.349663873118783 -1.577998640352343 2.539909980243416
-1.402167659427191 -1.536279704898521 2.564673261435073
-1.314972523952458 -1.576900505524478 2.525623588230131
-1.267437246250917 -1.558028728053017 2.531069962224722
-1.353335530782058 -1.577493606071991 2.540898446827684
-1.263616287674137 -1.552650420536416 2.564404982127700
-1.385995686527097 -1.550742441450817 2.550760707163316
-1.279439624864609 -1.557794023134306 2.587511904468829
-1.276740773487826 -1.558155853444126 2.564318562315858
-1.317492663872049 -1.567663451806472 2.559443090304667
-1.263746729887467 -1.513445535842207 2.602503789354293
-1.350080116105479 -1.595707607525106 2.508857490501394
-1.318399885665385 -1.533707018148844 2.619163581181731
-1.314030060358933 -1.574965318458626 2.529347517603948
-1.264111777109222 -1.505755364663700 2.600781636736476
-1.328508284567275 -1.577476782894864 2.531387289370666
-1.334043982810556 -1.566028439865483 2.558815515352725
-1.341582319891045 -1.580147992044674 2.529317975408186
-1.325337876221926 -1.500543063589797 2.612272446318332
-1.419099985129603 -1.525740463438920 2.574980190499399
-1.309757202574992 -1.531043561006631 2.619545655625852
-1.351103588692121 -1.588706746413982 2.534730118181956
-1.357694913373268 -1.555583674086953 2.549439839528775
-1.341340317383424 -1.536249305937548 2.612209523949589
-1.280618821602593 -1.502999373138063 2.626329645442748
-1.376877090736698 -1.552606754180546 2.541135291518937
-1.326005673583417 -1.525530160423435 2.619284701092955
-1.351723199390383 -1.546101703490796 2.596448143906194
-1.284435791224988 -1.555123254167845 2.594120436875536
-1.412397620302748 -1.531506563701573 2.570065631619447
-1.299891370459348 -1.571263891075987 2.565124190024161
-1.304302793324338 -1.556462153232823 2.602200280996010
-1.275552392152134 -1.518084589817701 2.620126127320521
-1.302752358746645 -1.571573115394742 2.572514384444108
-1.281952505603404 -1.556589412104731 2.590575350292930
-1.378161497064016 -1.586724097714777 2.537393119452905
-1.328377773437760 -1.545456656228711 2.611951895711762
-1.328406424658554 -1.555239175529525 2.596410113266665
-1.269809079059365 -1.532324482380473 2.597901309560436
-1.354262013508067 -1.533469937101258 2.599557802911480
-1.367058280237945 -1.591184902426455 2.534538313650081
-1.335378987811397 -1.537637528395096 2.615029547200493
-1.328896249688042 -1.578906805349978 2.519368013576731
-1.346436367486076 -1.595626268864626 2.516047944860913
-1.325348105800916 -1.549282958995367 2.608226642613059
-1.272947822464120 -1.525460539399258 2.605049399295617
-1.342958719754340 -1.568733223651834 2.543845258560530
-1.347610488022746 -1.563992978766907 2.552318379497532
-1.330433051041509 -1.557050160535126 2.594845826040952
-1.365379218959901 -1.588505693409145 2.534958556193146
-1.342017641421084 -1.595147888071647 2.524033892883810
-1.294831990648087 -1.541418872483460 2.611653748379171
-1.300112212164198 -1.565632980220796 2.590800119912672
-1.370673944214726 -1.593461495676428 2.532583698388076
-1.345733500289343 -1.532557707679911 2.609464938384951
-1.295732043235203 -1.559982973402861 2.595032454727433
-1.378862511821836 -1.552794280341444 2.542377051408477
-1.267263404684404 -1.532444971476176 2.595895079895484
-1.346669914754698 -1.597577327762672 2.523785380147893
-1.290509618657444 -1.560896548484472 2.591891312391263
-1.320245076346013 -1.571101960431896 2.544451177777376
-1.317182904709375 -1.566651532584165 2.581321784778787
-1.261674427669275 -1.520754881330949 2.592155062767341
-1.276959513577295 -1.556403869538171 2.532433528237404
-1.341271394974583 -1.584104636865588 2.529929242594673
-1.304096559552072 -1.568029593497571 2.537006874881641
-1.331445221660343 -1.538333923334654 2.615936799362841
-1.293033392142529 -1.561082547381769 2.538685956523051
-1.413110255572832 -1.531499458020099 2.570385338374159
-1.285014816833687 -1.546818251077428 2.601332550897599
-1.394308809233393 -1.554512299134964 2.550606635490645
-1.407898406132142 -1.539180023916753 2.563690504630391
-1.334228472328166 -1.529260508646226 2.616654817499783
-1.318720081356072 -1.547699117327946 2.611390038875930
-1.388605920728546 -1.549708595767368 2.554031235841771
-1.340216367544062 -1.592018606507033 2.521864441287287
-1.347318944518000 -1.561312990437577 2.557052087419447
-1.351043007828457 -1.577971961502183 2.540538494742322
-1.262708684985207 -1.521175919974463 2.594203195109662
-1.314124406532101 -1.566992158579535 2.585739667308641
-1.332787309130718 -1.559213973296092 2.591260486755678
-1.303282585094742 -1.561784792906205 2.597323366222013
-1.268292555899482 -1.523994412570321 2.600437762172995
-1.284552396994621 -1.553143933999915 2.543692480682565
-1.263480755717163 -1.511827592714796 2.601688329839862
-1.332482783615053 -1.578344492908123 2.524757298288745
-1.291648020019836 -1.542390506859551 2.608771890970139
-1.309132024609436 -1.550540139358068 2.609959940085605
-1.300773942216509 -1.564305386655904 2.531402778102766
-1.337135842084014 -1.541941145158823 2.611800510810944
-1.306309043629146 -1.556585269999898 2.602545962183994
-1.378097207834060 -1.585516193917557 2.539107743736909
-1.282183880802297 -1.529845075031202 2.611260998501408
-1.306731999728290 -1.553445449135889 2.604181126123259
-1.399365175102633 -1.544151035407034 2.557554952509171
-1.345459385691130 -1.559595792812902 2.571705735638935
-1.371302368107445 -1.577513760107629 2.541415249819002
-1.337977757694812 -1.555708216676320 2.594754552260501
-1.384789123487593 -1.550081542655553 2.550049036729680
-1.332993510255511 -1.544666856710698 2.611257697970233
-1.331289345753536 -1.572053715200740 2.546904241670167
-1.328033440502775 -1.566109851724020 2.563222492486812
-1.266384915199939 -1.545150530424492 2.584582354228155
-1.341193453976554 -1.581912852445592 2.529173899006738
-1.293534479694976 -1.556398705869338 2.600037640098162
-1.279819660170460 -1.551844474859800 2.592876795028459
-1.301699975771268 -1.564143444776732 2.517296539256604
-1.308266754241026 -1.528202401551483 2.619739104832166
-1.345948455177415 -1.531822719945425 2.609316775456050
-1.314326870105960 -1.567868886741143 2.583588053177893
-1.270308717921104 -1.560036419292777 2.528447319751584
-1.278143906206902 -1.557342602153257 2.528225318647522
-1.263275125157270 -1.516039665601787 2.597337371409462
-1.327864442168062 -1.575380002138390 2.508897131414860
-1.269808914510077 -1.564545707142148 2.520854096523444
-1.305124578232179 -1.534008245348623 2.618142814371915
-1.281085174408518 -1.561046259174922 2.581737448439758
-1.325535267801044 -1.573822783322390 2.507164693420227
-1.269799367015127 -1.532967628659681 2.597098477607520
-1.301388316396207 -1.567793926663301 2.584892554251827
-1.380732737110256 -1.549591792009174 2.544587496852740
-1.264974230014013 -1.546395350596558 2.573333435484439
-1.362557916327980 -1.599205411681289 2.517647020051061
-1.306784634095272 -1.560487238438547 2.598943715662232
-1.336117137424252 -1.577726161175567 2.521952570905168
-1.437243733838113 -1.507970707307444 2.517496064297180
-1.326000018653220 -1.566556052782240 2.565634634206397
-1.338984345405469 -1.535700413491041 2.613794324165366
-1.343939931449838 -1.572992415300138 2.537396553703823
-1.297648690135631 -1.554484310752754 2.602835030794167
-1.277468799066871 -1.538823393286109 2.602919246826554
-1.265583275764364 -1.544981286081312 2.575930093508818
-1.260343132708132 -1.538291059929549 2.587047312911437
-1.335345207129760 -1.574392827881664 2.538081832555446
-1.350049313267155 -1.575278203255833 2.541271905822303
-1.310387595132312 -1.566909907149500 2.543828451595094
-1.304894054567382 -1.521339392554127 2.619881380027950
-1.310477173230344 -1.530882151203886 2.619667928557579
-1.339135539770413 -1.586918391875357 2.526034530164331
-1.344726073432901 -1.596761056758401 2.523361359675930
-1.365072248325384 -1.575314952459751 2.541316658045913
-1.266256332418649 -1.537033384543687 2.591704561352982
-1.277942951796963 -1.552635799231523 2.540513132247911
-1.312237247840077 -1.560459126853944 2.596288525628678
-1.298573999163721 -1.568546149262503 2.580067600108906
-1.397685669866370 -1.545951633802154 2.555972582378698
-1.399414495847531 -1.530042989895197 2.573664079206027
-1.319917010517293 -1.526389349328654 2.620226705681294
-1.334998640545091 -1.563110437569224 2.575693107489792
-1.270573793061143 -1.536774952739216 2.596184393984448
-1.323701887793552 -1.573794034326905 2.542231476452816
-1.267383960247035 -1.521434027263878 2.600520187485815
-1.311258844533113 -1.569501443456675 2.582753528164395
-1.342444056906245 -1.571006198484587 2.539897717787675
-1.277388919017434 -1.502967833746338 2.624609586537841
-1.308851471854059 -1.566715458023092 2.544558616289682
-1.361743554772259 -1.549763148183241 2.547672354066043
-1.355650744529208 -1.594061169733272 2.531726521328073
-1.260071244682468 -1.541601981246688 2.579525759365636
-1.367529306156268 -1.574230579370598 2.541698264209935
-1.262161865442054 -1.537441231202377 2.590232119186942
-1.299058533092569 -1.517199307018214 2.618483803735220
-1.338225898440464 -1.545294275507301 2.609461717923505
-1.361774742357568 -1.576704326716817 2.541008806454827
-1.395386941745579 -1.531268383386699 2.572820375076286
-1.321893173701378 -1.577933034225166 2.522537699765606
-1.285082143018410 -1.540494117157460 2.605036300320242
-1.281990374919214 -1.550102257889278 2.545775710797880
-1.271475230088744 -1.522129798500787 2.609893351175716
-1.291828153141228 -1.567010961957576 2.572347188101233
-1.282167128509855 -1.522896921312628 2.612149254798672
-1.324285156476485 -1.563473091481693 2.574473416291885
-1.286948476105665 -1.507436345667417 2.628457963926695
-1.273188228382153 -1.557032808006883 2.575042099788193
-1.379236613061446 -1.560258350201138 2.542513468483149
-1.296365235948992 -1.552572321289051 2.604596055966348
-1.364759436808002 -1.588053214241404 2.534854869056559
-1.332164873170833 -1.567095747187871 2.555914389774510
-1.338747938318403 -1.586127309891548 2.517356766866090
-1.339057624749764 -1.584298674850357 2.521892733245483
-1.343949157344546 -1.570046917408284 2.540947617826683
-1.303008046480760 -1.568987048470118 2.582179040020151
-1.342460086863043 -1.558343665192276 2.587481252918736
-1.283583437638796 -1.533832196666977 2.610102526794120
-1.266113939423953 -1.560741905791278 2.526553287623173
-1.319596195997818 -1.524748531780155 2.620199782525372
-1.339154930670906 -1.582802232107716 2.523222167451442
-1.295154359826562 -1.561064091626462 2.543303406871103
-1.363462694804534 -1.599752587717108 2.523522768123931
-1.293839964212544 -1.558908848439448 2.532175739372882
-1.341631967949058 -1.585070660748226 2.530715422165405
-1.288709520640713 -1.557766065506282 2.594184797110812
-1.283291746761401 -1.551104934095796 2.545289181921691
-1.308116342105099 -1.572507857196652 2.528885069673039
-1.312928502546863 -1.565214684252691 2.590503749505799
-1.261951754492079 -1.542147298328920 2.580423081570973
-1.317362403496201 -1.574599315480097 2.535826218195334
-1.320145793171442 -1.540912814011475 2.615981316804738
-1.325555453552198 -1.538453345373800 2.616726294481369
-1.416574753417511 -1.540409844760308 2.568783513547573
-1.397707411463589 -1.539575285479619 2.563267577977206
-1.351179209490406 -1.565174805548286 2.544103236889063
-1.334022201387152 -1.563753288916750 2.572559267462670
-1.363695520994868 -1.598301458823743 2.527736392015361
-1.394382220411500 -1.533134770414632 2.571654703067296
-1.336951992326397 -1.537762357084091 2.614206675793887
-1.390507646998683 -1.548364309924328 2.557388687019938
-1.318047140773715 -1.531812997868320 2.619629180478902
-1.295244817286699 -1.549351937068952 2.607107301528962
-1.403129517151605 -1.550567829448382 2.557613401301465
-1.337514633170443 -1.539242940044013 2.613191493610879
-1.304787949614044 -1.563567293702940 2.594561567792637
-1.283810806243809 -1.546669273012590 2.600461232525048
-1.314766398580379 -1.520786086262750 2.620543252896725
-1.266828668165764 -1.559721805963020 2.547498956217488
-1.411057719530754 -1.522107797038290 2.576497401834250
-1.336751271078520 -1.560869640579229 2.584012295354779
-1.413823425369634 -1.536055066561906 2.568807981799211
-1.367123007055028 -1.572382033493324 2.542227609470135
-1.279439805625234 -1.559890901139603 2.521185747772267
-1.290520935443726 -1.559262887831979 2.593866930300988
-1.348426033685146 -1.572845148428411 2.541188056580564
-1.301211040056662 -1.569352793878940 2.579998472928794
-1.301344751094347 -1.560475396832069 2.550000806884367
-1.267971270926240 -1.540754463568008 2.589361183900775
-1.357709175119099 -1.586483692328320 2.534429342481700
-1.323526906882695 -1.542211020376963 2.615240491198886
-1.291320096258679 -1.556302723793805 2.546579761630172
-1.299764837492669 -1.551467452984663 2.606473045238415
-1.283221243926056 -1.556280366960043 2.591667717182203
-1.329536631808999 -1.552953354302683 2.600680547809768
-1.267804645407536 -1.542716852795018 2.587821290669489
-1.284562226396804 -1.558386100297383 2.589335622764874
-1.302721065907419 -1.568000243067126 2.585011265735130
-1.349347358392714 -1.552413068031402 2.589730935873663
-1.325729245835105 -1.518256440424276 2.618568544850699
-1.338692167341465 -1.564114300600236 2.559931963393747
-1.299772880863707 -1.555324988758111 2.601647152583017
-1.277508885011988 -1.531911162029362 2.607499985264403
-1.374822073792477 -1.574094203891159 2.543170585335912
-1.368741676479008 -1.586012556455493 2.536288014773068
-1.290349429250971 -1.537554594828907 2.610461260366061
-1.269004224816767 -1.521475912226486 2.608515690695194
-1.281509180405453 -1.553605682349638 2.592909040164224
-1.421023277130834 -1.527433252264569 2.574899946636294
-1.288486103331145 -1.561998956164229 2.586209435799078
-1.432803884770631 -1.518386813467677 2.513797905419693
-1.343333379884497 -1.592986837526562 2.531284365817724
-1.366940939912658 -1.573385165385706 2.541902178141658
-1.284436640278949 -1.500895561927724 2.626888361212174
-1.288127589710245 -1.557573689748733 2.542456798871953
-1.310652813652065 -1.573453011122783 2.529815081550627
-1.368159487952780 -1.567788131673581 2.542755100194054
-1.331429201641852 -1.550762322497449 2.604583413402002
-1.345169933208960 -1.594978150912082 2.530782196836681
-1.379820143556171 -1.583879600640863 2.540082671996674
-1.412848278001772 -1.527045937084953 2.573261587358819
-1.328756372662139 -1.577915697050648 2.529484548560399
-1.338535225657780 -1.531110243092265 2.614487320830388
-1.302306248987960 -1.570935620478739 2.575808979412542
-1.266824296188358 -1.519955433954083 2.601537583107716
-1.414886664501746 -1.536530472048571 2.520188199616858
-1.283706735454440 -1.561847890168338 2.581663607830193
-1.362371163732780 -1.578188694644191 2.539994792457241
-1.309646139541403 -1.567221444382181 2.547552674883383
-1.281265196918370 -1.527795448718039 2.611183663191908
-1.270224485493466 -1.556854962574873 2.533331285750853
-1.355481941986354 -1.568416941141735 2.544928219427720
-1.366159741822813 -1.597855735575073 2.527307601062186
-1.341598000153173 -1.593586893519906 2.520466533192577
-1.342737856749134 -1.582899761324023 2.531482083664081
-1.331520423133439 -1.564124432114091 2.573708819808473
-1.325978418591882 -1.574209592428439 2.541297098988685
-1.329996415098309 -1.513960781641752 2.616691287156083
-1.265273438773669 -1.523636814284771 2.597467629651455
-1.417544792187909 -1.521406064717257 2.576524685090004
-1.342009582317581 -1.565781683545667 2.552362789658696
-1.386869669857973 -1.540919161197399 2.554788445713359
-1.339436292513481 -1.563636882940854 2.560460656304493
-1.416173314168516 -1.520313266032204 2.576903953772514
-1.285125951036671 -1.527716474893850 2.613100505224802
-1.348843027387576 -1.595118327814160 2.508240392128697
-1.267878426296460 -1.549117760751636 2.583388367287753
-1.303235429055501 -1.548924031500234 2.609756085780409
-1.286747669030055 -1.554805560624330 2.527714072615386
-1.272724274343642 -1.542835229366111 2.596774881611939
-1.308432197484750 -1.562327407579228 2.595428275957299
-1.271710238259670 -1.513642416851041 2.619345506644736
-1.315968561898794 -1.568533294978502 2.550975567731048
-1.327137077944821 -1.575146333800376 2.509083930608340
-1.312922815439004 -1.571200311620068 2.571750538178967
-1.358448719063736 -1.590645644268545 2.533159218752904
-1.354612208340187 -1.599669953542131 2.526404497252377
-1.306199076789935 -1.571104048188249 2.524868327135575
-1.296538037165932 -1.549629384077654 2.607320936851907
-1.259857301008307 -1.534170713231762 2.591184114155259
-1.307653321057732 -1.571535008450835 2.565035677636218
-1.281597367028109 -1.535277212043936 2.607694316754274
-1.299079686704605 -1.557703324880522 2.598664945578518
-1.387375231558388 -1.549761097983186 2.552607820437185
-1.300849023023519 -1.562329551945778 2.546329232357103
-1.311612277473206 -1.508999529381570 2.617634449942630
-1.331282673681130 -1.570436376271022 2.548902604434425
-1.264927181182217 -1.556955651181011 2.529974072220766
-1.268105432764065 -1.558654826770786 2.530577923115017
-1.314378717947780 -1.511622754415046 2.618648695760974
-1.413363093104052 -1.540904344312333 2.518215400307439
-1.309242920478915 -1.572251729340073 2.518289957158173
-1.285354874032110 -1.512377848791766 2.627216114694214
-1.270493090517683 -1.519357060064864 2.614989459801793
-1.273686536638827 -1.534976521773359 2.601267290818318
-1.361283748175291 -1.574362358653869 2.542542005553564
-1.299223344044739 -1.569168482656456 2.579572800614110
-1.384993235434248 -1.583481637809143 2.530898307642758
-1.347681979254100 -1.540473764504416 2.604730653800387
-1.363099220409059 -1.561676645987764 2.545255313717870
-1.379804758795983 -1.549061166024056 2.542388207350839
-1.315928835448321 -1.575853039261415 2.529867467778201
-1.295176055772399 -1.550463770833982 2.606096392304420
-1.277023814856960 -1.548755382064939 2.592895534769733
-1.363482953479370 -1.587221474475424 2.534744790925349
-1.306051479907595 -1.547713602224082 2.611155821913069
-1.351375208251640 -1.598611446217028 2.517694257622687
-1.336794218112429 -1.575702868484292 2.532694679032114
-1.291383903679513 -1.522283292106685 2.616052171176994
-1.307997512620135 -1.555100715415711 2.602906626379656
-1.277150692831939 -1.556894152576904 2.585801069832866
-1.380243305695308 -1.575886839776019 2.544056708604537
-1.315951034131207 -1.558801656980143 2.597427297992795
-1.416678320243290 -1.526903020590921 2.573882646158737
-1.298168862094547 -1.562279818850647 2.527885729224309
-1.320606538555692 -1.557541968704409 2.596941730048750
-1.357769701971096 -1.558385911296248 2.545697120870461
-1.424574836354649 -1.527165224109247 2.514104951291346
-1.306366250926069 -1.551613891929444 2.608380584351178
-1.363688477914955 -1.562522368049177 2.545051695948890
-1.283946064691793 -1.550193648859290 2.546898176268934
-1.402418772592428 -1.550575451055087 2.557294148194818
-1.303488592071151 -1.567578570534263 2.536903765067035
-1.335675198885663 -1.565445045405935 2.558707294634354
-1.314955882499400 -1.557900311317555 2.600039187999647
-1.313393775897645 -1.550338474598307 2.610053539184936
-1.369435056433440 -1.571909400803582 2.542592741553295
-1.269826202902529 -1.510439447846335 2.617902852151390
-1.338320715348038 -1.539271478398811 2.612734765775121
-1.409260604121124 -1.547864823477864 2.557969957389919
-1.289215467076471 -1.523490880898825 2.614984612883739
-1.289416069954104 -1.505876956023561 2.628233081552009
-1.322563151612965 -1.568395456793499 2.558609659731566
-1.303030015337755 -1.552259903926688 2.606723733811977
-1.343825981638572 -1.568671640713668 2.543267063111961
-1.284474175745855 -1.554077638115049 2.595219018741706
-1.369675305832868 -1.564577914460303 2.542964682279359
-1.272472735485582 -1.556533959757077 2.542825748653180
-1.305479750949979 -1.521778435392284 2.619971632629587
-1.394993570691625 -1.555217505347784 2.550213614483018
-1.310216319928840 -1.572521520139709 2.516499075438034
-1.312851745701998 -1.565628386213195 2.555728354091906
-1.314782114198789 -1.538108701202938 2.617858697366909
-1.352167217572702 -1.582043327798202 2.537487815204529
-1.267306822513872 -1.531409445823544 2.597005976001717
-1.359471078069729 -1.570941192323708 2.544466413355306
-1.347902678672733 -1.543614452085655 2.603432814345787
-1.394554651487915 -1.537411825850325 2.569375005365883
-1.317542496536076 -1.534467953640438 2.619008446863833
-1.330525450025001 -1.568002177550890 2.551970565735494
-1.345832820899277 -1.578208145028208 2.536532784239778
-1.319154858108087 -1.543566656944828 2.614194170598436
-1.297676740369887 -1.567192559671974 2.582904316410871
-1.259055176486927 -1.531324825769567 2.590891187142464
-1.261620765943300 -1.547458123525499 2.570586065258971
-1.286397653662106 -1.552763905144450 2.597801306679477
-1.336675099548633 -1.563432879844045 2.570646271886241
-1.409918874844295 -1.542581825682968 2.564560044556205
-1.324485685788567 -1.577731730697091 2.528900474703654
-1.289857186908674 -1.559774037781114 2.537767992427511
-1.300041934977328 -1.518820529674797 2.618819939333412
-1.327155475386497 -1.508167426354655 2.616109793628603
-1.297010337935318 -1.562876184610955 2.592087189046454
-1.339584373266693 -1.533238196615751 2.613838610143215
-1.381924699079814 -1.580560185592119 2.541307008057184
-1.343069924315744 -1.548778023460234 2.602824456936949
-1.313588356992172 -1.566441106522908 2.554654990271071
-1.260743178584915 -1.532045542694597 2.592844607246881
-1.370286695469648 -1.556197045630433 2.542770907094259
-1.260297336341466 -1.545318979695256 2.572873683120498
-1.303793880537407 -1.567996257431050 2.521573990668849
-1.279410967679510 -1.527669700780547 2.610006438729395
-1.377577370018943 -1.592239305362714 2.526626333989220
-1.278182391635994 -1.558784878000351 2.576734482210907
-1.316588335095760 -1.504058691658050 2.616075917608319
-1.339803313587729 -1.562545773568400 2.567147919060198
-1.315017953476176 -1.566485778895303 2.585403539249943
-1.306520125790993 -1.523257791573073 2.620120813453051
-1.264911439329693 -1.555183293809757 2.561810433840040
-1.341532319577650 -1.577243782065305 2.529275210141514
-1.350162346911304 -1.589870742954536 2.534285958272640
-1.388707174848919 -1.564737280445145 2.539484922386321
-1.323945659134347 -1.530970795640084 2.619541138552323
-1.352766353264301 -1.528210058755760 2.602351694968004
-1.339960874775254 -1.562600808844322 2.562736407915975
-1.274801225124735 -1.559536788965253 2.528136235217644
-1.343588250087415 -1.525138804290654 2.611201216773440
-1.289634491905129 -1.565777356155906 2.582782791468281
-1.392677795968629 -1.550641936905075 2.551938946489022
-1.347209040107808 -1.594933721276064 2.531722547751394
-1.341079588663029 -1.591453873184841 2.529574680026030
-1.356837099062940 -1.597028004444658 2.529696772641668
-1.306195559472555 -1.521615757191916 2.620092739524435
-1.287910111589053 -1.564067651328682 2.582819950561956
-1.416552099368260 -1.522555550073691 2.576067605958940
-1.279807865071715 -1.560137072064733 2.577875915420022
-1.404652081108988 -1.534649344725127 2.565979606001268
-1.365831874842806 -1.570909532840355 2.542926045201002
-1.304931063267033 -1.544165107842564 2.614060681142218
-1.334535272662317 -1.576823219009080 2.531525740754018
-1.351618910612332 -1.596255209110838 2.530494200402862
-1.350617178752423 -1.597074181600140 2.515817241472464
-1.364103359560753 -1.591600523359516 2.533764219811671
-1.308637121958036 -1.514854830768305 2.618924221304217
-1.388327457285511 -1.545970300571798 2.556197239264388
-1.332026234139811 -1.525857825194657 2.617427318876678
-1.292417331890899 -1.495437426279679 2.623533735669061
-1.269576826526805 -1.554942930665660 2.535429333379138
-1.289453934982642 -1.561398911656535 2.589398758032955
-1.382218172336036 -1.555287564745218 2.545191308716722
-1.302251990887938 -1.572859764613624 2.569743592973619
-1.347332415536201 -1.553677332863939 2.590748358385248
-1.262916259839800 -1.546596572286688 2.572594931782036
-1.279498882943389 -1.560059437951999 2.520582392399684
-1.351948288735025 -1.576881377759810 2.541080097658682
-1.318353696319101 -1.552339553591159 2.607602361160076
-1.315472168049889 -1.555892583726918 2.603512828866891
-1.314038746615807 -1.574526839768235 2.534064136159055
-1.289507312799604 -1.558400987210212 2.532809099797682
-1.299015933552446 -1.523961735795869 2.618177040625555
-1.270094413394250 -1.550741589860918 2.585217938776028
-1.264496428997242 -1.532811576452342 2.595038184980595
-1.334191111970786 -1.523841148083532 2.616246566732611
-1.273873660424287 -1.557990860488332 2.531542867124626
-1.318901901401393 -1.539202767366766 2.617183666722441
-1.319869015291390 -1.552526554051057 2.606864955278621
-1.362031808692194 -1.548220969275820 2.548111096185638
-1.307882063053741 -1.568815444611172 2.539222214202849
-1.273619727438434 -1.497768357620066 2.619203140778195
-1.386281906775358 -1.563032954618114 2.542040011582975
-1.327726336852090 -1.534097622519898 2.618246304236777
-1.344035695811107 -1.588648478238060 2.532985410769824
-1.305256797306095 -1.569443197541891 2.532594692833310
-1.280205376798345 -1.530310317754786 2.610038613667654
-1.324369866453912 -1.567465274888643 2.561693366970183
-1.332389967666447 -1.541961098837973 2.613962964032624
-1.274180142937154 -1.529741963849037 2.605095820033820
-1.328355068117622 -1.578294250857087 2.527169275234166
-1.278877834665790 -1.545356525266328 2.598510342961274
-1.302719211934545 -1.525206636607707 2.619362784691071
-1.327135922890340 -1.558446797368281 2.591706081456171
-1.379071995048074 -1.587310292880875 2.536012265395660
-1.269672794941063 -1.539864665524134 2.593319480915797
-1.269869313096821 -1.545338579556537 2.589315433400074
-1.387881510848654 -1.544194028712106 2.556822978227959
-1.273953783251955 -1.561515431428076 2.526284852603517
-1.296845048162863 -1.557551498367541 2.524438591728675
-1.298343355498828 -1.509216454094270 2.616505559875007
-1.337628868031619 -1.562134777848707 2.578223877798969
-1.391609598523466 -1.539976117450539 2.565655821304714
-1.308241312091285 -1.524966435830206 2.620082644257117
-1.273351197253553 -1.531725331436452 2.603248454542270
-1.323834592458637 -1.511569990106463 2.617964140626991
-1.325315661797861 -1.577866558009397 2.524112011921073
