ply
format ascii 1.0
element vertex 879
property double x
property double y
property double z
end_header
0.052156554469171 0.040299140251459 0.082810843111772
-0.025516415653613 0.162716119334747 0.029115114852320
0.000676905786760 0.092666706405232 0.076066726200570
-0.008981387522659 0.039224174842962 0.045492171150540
-0.030741806627432 0.081125756847331 0.054529664737868
0.029782384608634 0.100343038758596 0.084158575953570
0.034514885755579 0.113960411223923 0.079762876207320
-0.056553340545897 0.122064626465284 0.033238271465065
0.023454719690907 0.144102901625376 0.012115920867180
0.040388540638402 0.101883694059631 0.091281499759466
-0.003881250392465 0.150838859601822 0.014172663562332
0.029845850047911 0.164308317792976 0.019358552782092
-0.018353509907486 0.158089817190520 0.021874996376678
0.040357674971202 0.193576471632312 -0.003784229341791
-0.038522269317371 0.138241346944015 0.022328086983779
-0.024451970689211 0.143189808487844 0.033060827768060
0.042143486987606 0.078821029551245 0.094420208659440
-0.056737894046096 0.115015923907870 0.030879364585148
0.053657348961886 0.077881715403173 0.096393632502122
-0.017132082348975 0.028497692309462 0.063789916163528
0.005133634509732 0.121627501937374 0.054091326469995
0.041691307102402 0.161600842295248 0.036511998840624
0.039550862856034 0.123733146544481 0.053760836542189
-0.025904160925259 0.082029617130868 0.045001517801884
-0.035831310073831 0.150041872115812 0.022624751304939
-0.004126768963720 0.185033972221935 -0.043197230793681
-0.017062276130403 0.126869285272998 0.042876306645288
-0.022247057656420 0.073184980790373 0.039828058339223
-0.033861925756444 0.106441928392988 0.050098599656307
0.061483427507728 0.052148861554797 0.096194943786561
-0.059200757268939 0.127494924747566 0.035534754850299
0.071460407858064 0.058428431981062 0.047733532240766
-0.000521141858950 0.088905574447587 0.072459215442411
0.070723194515821 0.096935057169172 0.075300445993448
0.062103366200873 0.064594693076017 0.083485613780493
0.019253827507622 0.111721940023988 0.062062336529327
0.015425105818497 0.087027093188612 0.113097713179593
-0.005507278716366 0.087397660614296 0.064318779254588
-0.006957452484507 0.114666131360861 0.042508604481810
0.004979172411608 0.102565758839224 0.054639331885061
-0.019392065949295 0.074326294812234 0.038737648769435
-0.003742475908526 0.100497384928854 0.062964302454081
-0.057468935635276 0.157036096943208 0.046729321749490
0.031117350077537 0.122489473880047 0.069274929996212
0.055498954591251 0.093987651339106 0.088621054169375
0.034164379597258 0.084757113221302 0.095205217055504
-0.007776395665930 0.165210979410652 0.000078683397859
0.053821077205828 0.115445180426005 0.068394698848606
0.032843593775929 0.100322462293645 0.075563063983871
0.044915541878399 0.111438093637169 0.062262765527549
-0.015160343955308 0.078220495717784 0.027059628866491
0.028001609513003 0.114831457311371 0.082612950373959
0.037245597118796 0.077857327546177 0.104900903432240
0.028522607993645 0.128644406325826 0.075349188277345
0.072363526520081 0.075020137409759 0.082344730323337
-0.014647450301169 0.113953218206770 0.044564647019856
-0.030414321493615 0.153339125769829 -0.003930554138621
-0.038511515574779 0.091283567263467 0.043619317483407
0.010217866495443 0.118139145619510 0.084007024627304
0.010406745118324 0.102955360096675 0.073674754518790
0.001896656429271 0.091062038301678 0.081527810093906
0.035281380086256 0.053321445714810 0.094090862329366
0.038018840924929 0.036323975931843 0.086505771171146
0.049629619802027 0.078028817882760 0.068071562788931
0.031145343964705 0.126529344181203 0.054065996787384
0.039041860166207 0.137312806980565 0.080224918717639
-0.018680409854055 0.105078383202437 0.021971763545396
0.013390921975175 0.081364324664609 0.088555037621062
0.024316641336684 0.100641754597015 0.063320067461560
-0.005036419930143 0.089287069850108 0.091049126537191
0.088342123064708 0.098666260059930 0.062247211344985
-0.044037649219375 0.108739016003310 0.033673245238859
-0.036428122245705 0.111589385862487 0.034945802275842
0.052663118429026 0.124771581343778 0.085755012483399
0.042501165478467 0.106202934353919 0.083875832043167
0.063569978136407 0.086580289834566 0.100287486568803
0.013650215755444 0.160294741372084 0.011859201203377
-0.004965063550482 0.084838744892776 0.059929364103793
0.047024984846224 0.124206068789126 0.071735274804938
0.000698103616512 0.145813274564309 0.055061764953942
0.054762399671172 0.085737604564325 0.093526000058307
0.059467961293489 0.061699308727612 0.099907746483752
-0.012351635509218 0.147481717366468 0.012492126608383
0.027709373034464 0.166399977354679 0.004123188113810
-0.015792403166159 0.122798857837550 0.024217460361200
-0.041328450408144 0.076169600781297 0.032963404006238
0.003478725236636 0.119983111659865 0.079975159706069
0.085899973788544 0.045868520263260 0.084021562174207
-0.012989935952410 0.122717258023110 0.040664899331209
0.070029764962521 0.042263225245549 0.069044269900307
-0.057956973762959 0.135242185837897 0.050262585255257
-0.034835397999749 0.091148610925417 0.028991867869387
-0.000933164869841 0.131277405834733 0.030382909201960
0.069421645073561 0.094526558123386 0.051335023688590
0.056698592570163 0.096265009794259 0.073893033933468
-0.002901890150544 0.034372201967029 0.070354247408297
0.067941553965847 0.104830479110716 0.075002674109857
0.029736195742533 0.124741022989665 0.059029236640718
-0.017131200682818 0.070296199211522 0.052359189965755
0.055742347956940 0.111649748379723 0.086365483975861
-0.059733468281645 0.148516393358166 0.052125500786476
0.044072841970547 0.050898792323519 0.089555851879253
0.040071141731336 0.086788399025167 0.083389567944972
0.012663052676626 0.154988101098080 0.035260441730630
0.015190585430966 0.114176141426519 0.076828581030218
0.030399299117162 0.157253003335527 0.019714478244139
0.018210148117392 0.082520070661528 0.084198241280261
0.060324204978082 0.083204880661680 0.085094913972863
0.015912529782280 0.156541315589546 0.022697783692465
-0.038647745078139 0.102638170600459 0.039176743351284
-0.039355697120903 0.132768975666294 0.033464445113235
-0.049976964343527 0.132449800974204 0.034008300030309
0.014717586610487 0.125506839729477 0.072956255162171
0.016967476430003 0.126866497480049 0.075330365464084
0.018496203088441 0.058214216349664 0.097010832066174
-0.056489603732953 0.105014856619268 0.052081851653662
0.029342605516240 0.076578176869291 0.088552915226849
0.007148939109142 0.113712084005110 0.073684383829350
-0.000240249253101 0.029290473095187 0.068968853164843
0.048804548825939 0.053902305829775 0.081282160429676
0.038987637230327 0.038033353677178 0.090343480704159
-0.031214789226198 0.134343592956387 0.026424792814662
-0.067640088394783 0.114632698019615 0.022440234702800
0.026509234093346 0.097627895600135 0.081584355707017
-0.041300304404680 0.062274912311547 0.042032840147558
0.079111636373238 0.062469040655305 0.084672660092863
0.065635956282154 0.088954366530562 0.072819854042386
0.025721629821153 0.112516752689204 0.052091079846073
0.015184580700118 0.163186072919573 0.012937766047027
0.016051544168216 0.070949312675264 0.104433765835236
0.002229375573032 0.104315215585844 0.057906383003059
-0.048323401976711 0.139036917310113 0.044267474557424
-0.005060067267675 0.082977679145175 0.058406452905170
-0.014944275290467 0.085171923925822 0.110311786426306
-0.019065677841862 0.120492811717881 0.039001904439622
0.049215358793679 0.056062553381881 0.078610788048759
0.017642094694116 0.064619834498444 0.101673272339823
-0.011465753712061 0.075373711649120 0.066030391851340
-0.024780562804030 0.102470277185750 0.029002618215446
-0.045886026907880 0.123457736651016 0.029168656166814
-0.009871678661069 0.056604745327968 0.077283843238471
-0.033167975491806 0.074098095392201 0.046645109304253
0.015794430537751 0.055887355785038 0.064884079499427
0.049713963123352 0.095367218920088 0.091405687500428
-0.011225463959857 0.105208622834464 0.039912978696811
-0.006415017175418 0.091821805620277 0.044575624480247
-0.054695890057709 0.031377032206082 0.058564631809009
0.004392024781808 0.158011758757676 0.024324775521402
0.054080456751763 0.104741624255417 0.063486061077237
0.041670287614172 0.053675844051895 0.078209902333977
0.073858747463547 0.079644138781724 0.055090913187824
0.023817991610545 0.167524620735765 0.004991073909164
0.029700261419464 0.096217615714812 0.077757903678169
0.037273640731213 0.130078050551662 0.101916021449666
-0.051690104144639 0.132564378725226 0.047759616259349
-0.037968026221708 0.110214953241696 0.050734146707389
0.054630076073032 0.061389818235087 0.096457030741625
0.046837149035759 0.046187370759883 0.089018293748014
-0.000940157292765 0.153426084329001 -0.006730498306645
-0.024239939096141 0.126569286669604 0.033124574919254
-0.031778735261751 0.070156331347153 0.050059204074544
-0.023968852952619 0.064736241277076 0.052104028676226
-0.014759237043164 0.080702575642753 0.044296688072419
-0.004237662770392 0.141834149685513 0.029630045145019
-0.052095292894112 0.089148598725383 0.026016834483728
0.024993798206494 0.162717217923566 0.018173322906514
-0.028328290198720 0.092002933326183 0.028734692192143
-0.003958726323438 0.045602806393285 0.078401364558866
0.013308249093601 0.128719073513809 0.061118112647719
0.064546985758974 0.069688410319083 0.086751557303622
-0.044849614030401 0.140196677241032 0.036984554930880
-0.036296284914346 0.072592309551130 0.042094839838718
0.021674334932456 0.049275272478091 0.099120369776178
-0.005397028942686 0.091505170480554 0.085791226020328
0.070641412644359 0.093255559617797 0.073872545505152
-0.020594062705176 0.052278726786656 0.042970914467420
0.076610455337440 0.042583473551350 0.092721720031464
0.002124083939859 0.114470738893283 0.057835716444948
0.072236808732026 0.076659296524546 0.089489402959981
-0.016924058871934 0.068559197106280 0.061233039985501
-0.018525262928261 0.032994316496012 0.040772060581701
-0.006682070013009 0.157821750513591 0.024290943263087
-0.042667039150843 0.097681866239679 0.052182458383527
0.017152705971060 0.113300693154737 0.086925696704876
0.056831883215960 0.045119388020718 0.106749963421211
0.003878782926965 0.168588007038547 0.032622715320733
-0.009776965268786 0.112471846655617 0.036688590388458
0.078486611448857 0.072913240465808 0.093244930231219
0.044428358136124 0.106495709432909 0.077021565401380
0.031646698516222 0.174257672230032 0.016975808814013
-0.040600218368708 0.136315601075515 0.033016926970092
0.016096052336138 0.108735864207238 0.085816209795489
0.014823588946460 0.036197531318954 0.091956466563882
0.032877312440092 0.097757722078639 0.094469970130288
-0.011581838336965 0.071045128904785 0.050999304953135
-0.028383466043658 0.142413126549523 0.005266193065581
-0.015741476725605 0.028910141470143 0.081557303433050
0.049439103185042 0.078955686041589 0.070931037413769
-0.042457616299438 0.107527653795529 0.014221575274627
0.031399431880227 0.108332697754359 0.086805327867318
-0.020725437518342 0.142677409420888 0.049901442250433
-0.027414807844238 0.101222585439318 0.066431548756717
0.008871441542670 0.046984462107071 0.101553978082137
-0.020010542607785 0.050033397775995 0.046452311868126
0.046966407292087 0.098250515032751 0.087038209769270
0.049251032618168 0.057330568518567 0.094842664808004
0.034073996082235 0.080939450995268 0.069198907232486
-0.028580652214853 0.137808642740881 0.031611097420883
-0.001788662276750 0.090708959449496 0.038627649472693
0.030534611856858 0.116268277921914 0.045912871402501
-0.037147131942695 0.088861761406922 0.004981900565146
0.037834555435400 0.064165107236235 0.099704993675374
0.005265466026519 0.193567069231942 0.012450659205558
-0.019362894524829 0.149460910906977 0.043015495087344
-0.049240990977990 0.137702803725615 0.047572908706092
-0.039658767554496 0.139716906898722 0.022543580715284
-0.018911197362217 0.178733451130546 -0.000037786878046
-0.002784214963675 0.059409111054208 0.044029563394709
0.055173922450935 0.102213254725013 0.085557409952928
-0.034913418940151 0.129653010260286 0.022375889585059
-0.007059848311363 0.134256065582263 0.065697341621349
-0.042138088997224 0.127095924485383 0.034951155337171
0.065174706902991 0.105954040152570 0.075911378447400
-0.013595506149774 0.118323746193578 0.040443823828381
-0.036383960853005 0.055820066343032 0.041625376920905
0.017059868194075 0.130288083131336 0.066031756839520
0.062288944018492 0.037256199038386 0.092415024040337
0.044545897055174 0.168375283774586 0.016875855678714
0.040113708855062 0.122985574188017 0.071851625834126
0.020171778647568 0.181977063852225 -0.040984292674473
-0.021513865629946 0.017419436670282 0.067330150721319
0.042158041248073 0.088814830978833 0.074845473811576
0.031577117363572 0.060411684016081 0.095110326689580
0.030097133116899 0.094616971465360 0.103119583667942
0.010183945999793 0.100158418607452 0.095923235123686
0.015060707691961 0.060055347542405 0.099234648694041
-0.001844603687395 0.153589434601640 0.050198983386485
0.002773376235025 0.084685728137629 0.090779521243237
-0.009784473593264 0.141741127980570 0.001551901158058
-0.001454351389749 0.161562518309896 0.011524834130132
-0.011164642923334 0.101846083901210 0.034163657746999
0.008552520937925 0.077611237847303 0.098614065203619
-0.027931352833932 0.073258846066603 0.032073493168810
-0.017340481031775 0.106335197213475 0.041571384917262
0.026548046871569 0.057661286303822 0.082500335457737
-0.046302536374561 0.103869824835234 0.028554998801154
0.026623910327152 0.127852341199698 0.065596569519225
0.023809350138868 0.054459275889001 0.078326547593390
0.006587145096375 0.055157674679626 0.081705845537348
-0.019022959224949 0.069617833544695 0.039269492220127
0.012451020639015 0.096037192367633 0.105959146032351
-0.031268927433412 0.021268248297098 0.039421072067231
0.010369233557571 0.126752701353208 0.036185975269332
0.005157375144222 0.056550081486889 0.085172010007233
-0.021085179929949 0.075265179235756 0.061252105981121
-0.032167472371694 0.109880989748553 0.034422077365321
0.037479847164886 0.106257719531537 0.074575490751385
0.073739634536527 0.107597886449297 0.074707640176317
0.008967314070946 0.170027411863285 -0.020499253047075
0.061603107183432 0.061497655517853 0.094739074728402
-0.000086918226326 0.160303793604199 -0.027742899699141
0.065055340358854 0.056649243874012 0.078218611158423
-0.031091558262134 0.056858886852904 0.050153816015067
-0.008956190605431 0.135022280892439 0.035677558882206
0.068197313908335 0.121603783695459 0.035540438462367
0.033175185109898 0.065859842377057 0.097610916109703
-0.044834952628757 0.091691636620319 0.024224300288568
0.060685128672331 0.118656461600310 0.050950772651302
-0.062620144529100 0.127603267025922 0.021368572343231
0.048782322973337 0.043830339167836 0.078227356177460
-0.020858617043012 0.045371402915033 0.046704238827605
-0.023970161047355 0.034283126802641 0.041805814097953
0.019263311932190 0.047583017851188 0.068599576623679
0.044044465388131 0.084820811511335 0.090479006681979
-0.017027215036546 0.041283351852153 0.040317968395082
-0.055657433546746 0.094524603206834 0.057429586628991
-0.023250148815666 0.025490990196671 0.047186012786314
-0.012328167655007 0.134947634065319 0.025224414270524
0.000697955742164 0.121708154253737 0.058886810040034
-0.063520777414722 0.126700346711058 0.056793285432526
0.049197531161836 0.059204329097961 0.078441176129830
0.000905423884482 0.170689593379121 -0.032050805690582
0.068093375266994 0.053043846500429 0.095283337577934
0.045524251825106 0.174267921265057 0.014126828139221
-0.019502822077649 0.070868401303214 0.055882106461069
-0.013530170232829 0.088576077264490 0.046402357139282
-0.018237449639611 0.049042883707620 0.056745347908813
0.070564046300568 0.095956937167692 0.078611413158641
0.010874547278207 0.099785574227317 0.090505197324436
-0.010050120746590 0.091552941357295 0.066902392294392
-0.048907661205696 0.118817629468730 0.019983252954217
0.031556510650242 0.033860764511096 0.083661704092697
-0.020235691679788 0.161787648915031 -0.007374593860872
-0.002693896900446 0.133149588646445 0.020920070373732
0.005322075721931 0.043288442895151 0.070218293707871
-0.006639691462165 0.037613137776807 0.062584635470920
-0.054893348335082 0.134037816390280 0.056248473245068
0.022966337462946 0.085675354733555 0.076329068342938
0.046019740033014 0.079475214946218 0.096825887076443
0.058629403964583 0.045264802705042 0.102520885114473
-0.027970263942003 0.125436106188842 0.024812777776743
0.044089099796816 0.132895285307070 0.071134398842696
0.032783440486847 0.140683827210043 0.059737441639923
-0.031890234620624 0.080746707508496 0.074001379393971
-0.036665610587050 0.095337629953175 0.033222967477241
0.035953206122561 0.071094038088159 0.087699666354072
0.018551532858010 0.093818419823043 0.105013484006240
-0.047707155976005 0.155434229585414 0.042682109295795
0.052438833215403 0.093288252476238 0.081825379176930
-0.035785660923834 0.108026489286377 0.061701283114370
-0.052148267933589 0.157318202791901 0.040236135457328
0.076181093103000 0.097759112458963 0.049393187737561
-0.004680365219248 0.055762829001651 0.081559788618715
-0.060297384668965 0.156877164195864 0.035656531777517
0.016497254910653 0.097311682261210 0.082800625258371
-0.013860521819547 0.164178496840085 0.025519652566256
0.017523061318969 0.075088406941670 0.091147639035264
0.076965878781125 0.051921449355494 0.081545650879214
0.003890253722104 0.046513098482852 0.061839312701847
0.075078210700238 0.068549311230043 0.097861826128418
0.071870127245634 0.081500799429969 0.053067645611798
0.009963491869758 0.113438361465988 0.059451059039280
-0.035845856187683 0.059089840326171 0.041496720954422
0.031827038991941 0.035652621080139 0.067254650836555
0.056781323320065 0.089356036850024 0.091732132664485
-0.025781321331249 0.143839861950050 0.028084454811083
-0.041130464469457 0.123647417545569 0.044233959048938
0.005883251190988 0.121492226092310 0.055022020717482
0.026380488968944 0.075708446866233 0.075752414804757
-0.025083809628327 0.139750783056113 0.035119054469496
-0.021396382179825 0.088266311721734 0.068361166734129
-0.052854192128467 0.125579678223336 0.036916919877275
-0.011958428320156 0.034540192166660 0.072861617711110
0.004810807247950 0.088794972545542 0.069920774483587
0.005277295755924 0.075666318696707 0.081407566366814
0.010964717830790 0.107734637210042 0.093895063173860
0.044194787290456 0.177828864050314 0.025147891688023
-0.055491197778606 0.145882266537147 0.042279892863219
0.064260411986974 0.076134883825557 0.098704090454761
0.031445776953636 0.097722119417608 0.088797446519163
0.060577079111486 0.059441187851354 0.082383927683584
-0.011829564868646 0.051932799082209 0.083740193922168
-0.028452028726782 0.134372081411495 0.044522190398461
-0.058730609360225 0.124617020299940 0.020270055407781
0.034874162804486 0.194256341664556 0.003526627440584
-0.020890786438534 0.079140830875536 0.070811115860197
0.064978664656303 0.022971714669490 0.084821544717979
0.003315352867446 0.181525534107393 0.040016514509832
0.043166388095623 0.115973683172533 0.078934459423926
-0.043276031406874 0.127496257971680 0.047360508564004
0.010138080911593 0.153534435823273 0.012471431215737
0.020005527233109 0.095897008400771 0.089721095869305
-0.019932287736980 0.123382311825056 0.044011317691131
0.024064600288790 0.044320153410262 0.090234613536547
0.031870504228697 0.040950624326127 0.064139317967109
-0.034310719279702 0.097698910195670 0.032592833302057
0.005265819176156 0.039124445212669 0.069257647599414
-0.006778939902961 0.122908419778386 0.030646959016328
-0.012311156543572 0.133590769183825 0.017065369281106
0.059039054350543 0.073807314117069 0.092857062105002
0.027318739585911 0.123840307657020 0.071199116897960
-0.068758882747287 0.134633531020205 0.033788834260934
-0.019339596172829 0.133922540029331 0.025137399324662
0.045768371364569 0.091564478747890 0.085660437108633
0.048698269292481 0.039197097737567 0.078720266364496
0.082306563788755 0.076349620650904 0.072468541072175
-0.042909634907352 0.127806380849795 0.037488118882125
0.021197199716808 0.115808185760790 0.094027451423209
0.016406453310070 0.071581952974645 0.083139315187142
-0.035415522881369 0.108890935111031 0.017752327506154
-0.000312170123278 0.180864365790886 0.009144696370476
0.011313199344724 0.096234838258856 0.079684605417416
-0.024969967937984 0.088568175771329 0.041230243177754
0.048591751388830 0.066513812905103 0.100058651894067
0.006932510635625 0.149990098964462 0.031933890566414
0.010039732580620 0.086232288748409 0.083964698543639
0.035677901315209 0.100414855176466 0.089962716843205
-0.007329240429776 0.071533484994537 0.104136292970243
-0.052012473207508 0.146731935453046 0.042015847657421
0.032298212569906 0.057773829348931 0.096825020055803
0.038461702417151 0.055248301912260 0.085844004330708
-0.011077286984015 0.092683209038589 0.069464019959529
0.027691919073711 0.132000152302973 0.056099132033334
0.002879045006349 0.070571986091731 0.065376772978181
-0.005113108250329 0.063623570056280 0.064063836711850
0.056603742163846 0.111242295727074 0.068467283679275
-0.014443156752467 0.030288261398703 0.086697575107646
0.000251327166069 0.066950158966953 0.094721525285175
0.052404277051495 0.092471780700930 0.091614994260560
-0.037894244917303 0.100641732961755 0.040483925495703
0.077607044087229 0.082087181873287 0.056137132968305
0.053224802864121 0.061757813610334 0.105929119620612
0.035707465411378 0.080179205430493 0.098209748595066
-0.019746030242478 0.046050206958922 0.043178414710939
0.059890501812857 0.050571812438060 0.109540919188401
0.033921660468773 0.045208858894635 0.085170237616346
0.054647995129240 0.079796662118383 0.081632632560933
0.054426019686931 0.072773181595257 0.092329581043384
0.040933861584058 0.101764662471986 0.085473185996116
0.041917935909030 0.039746328489112 0.105272935210472
-0.016772026627697 0.031692578094778 0.073320890906866
-0.013084417136641 0.129379813768060 0.041832839945997
0.054078490409542 0.073445122353678 0.098002146279595
0.042558609774187 0.061442855756579 0.093479227502668
-0.027701538668869 0.083221201931102 0.061822646556253
-0.005192971690495 0.041353313467393 0.063352416967702
0.086381160618333 0.055865652726216 0.100988565345602
0.057031803827424 0.080204317618050 0.090055153074831
-0.005958691254774 0.158342974208282 0.024749704146679
0.034641737343369 0.113409081840740 0.080737123273973
-0.056064600127030 0.123843621495071 0.039389083398532
0.059530183021005 0.048526925282181 0.093470165202780
0.038733663348304 0.107367034296135 0.085693591114125
0.001153061127437 0.106708794734475 0.067730561101856
0.035093523136422 0.133466141110158 0.053564062390447
0.042194061696237 0.112752404679394 0.088396244762323
-0.030311835833599 0.133086367345198 0.030928351517257
-0.042584621942775 0.092569380888257 0.034085619507949
-0.022332162960060 0.120928174472618 0.014150037712852
0.007748557951996 0.103661556380175 0.076646565136443
0.047929939468220 0.110442704017067 0.074511284330480
-0.035664247628883 0.123490220115646 0.044314687182325
0.083966692863438 0.065065792748451 0.078404667870465
0.036564197485658 0.111101991710115 0.091931562162355
-0.026416767771942 0.069474598135318 0.035197719724229
-0.031897616287646 0.034559607586883 0.052715379935594
-0.014469398550679 0.028306514095436 0.051796675868862
-0.054303001218679 0.123642964568837 0.042650397582441
-0.009608926795347 0.095502317596508 0.088593282086218
0.082615819813546 0.058043654592439 0.060965238113521
0.050176582912824 0.081653383951943 0.080593659021038
0.006805199155020 0.093989497423518 0.080972805434306
-0.000166928157224 0.076769480546912 0.091322405493454
0.046563085708582 0.057526127076352 0.083603599448954
-0.022924628204978 0.156807203384221 0.031078241489725
-0.051025254291617 0.114268844278877 0.037681875855606
0.046465122668205 0.104320864530370 0.089486713181065
0.011796482257095 0.066097059091343 0.101384362973976
0.032237185715299 0.081460045660201 0.106040838080172
-0.043645077295240 0.121774907463846 0.039601376689491
-0.037135695248239 0.126193474658694 0.046148357178213
-0.052371804205726 0.153879166623102 0.029873081151476
-0.019856652270426 0.140498746076230 0.038647029641468
-0.029751532115289 0.041135975372834 0.066606588057322
-0.016314838574229 0.144367676893537 0.041127003575872
0.052140516736472 0.096345241711258 0.069396435864326
0.027125900016509 0.164278855379667 0.000809202443172
0.004590643849259 0.082472068759112 0.081710873595483
0.022728664544522 0.193324769810539 0.034391098569540
0.068772795112812 0.070152512117647 0.062967720481617
-0.039428336938144 0.112075146462067 0.040569559082489
0.076199340141657 0.084304987056774 0.068601013379385
-0.024939902304279 0.049088809368971 0.062510138519608
-0.018937660401564 0.029342248258416 0.044487362424059
0.009773535433437 0.047232271986098 0.078460052423191
0.034365954273185 0.183210334558434 0.012343932995361
0.047523184574760 0.043964630966017 0.092216112965212
0.067262012487157 0.042995697850785 0.096021088278664
0.047468653792804 0.053877114340287 0.084542658988927
0.006006451967827 0.117692073902281 0.068653549365175
-0.024413380433746 0.126201358547017 0.042903334924386
0.032319279319024 0.160098244311224 0.014414755363716
0.043228632432081 0.077215614154142 0.094815088786912
0.027013034237619 0.045952188009061 0.087859147376510
-0.012016785190202 0.138335421433250 0.025308471230490
0.002033019806128 0.174573213105354 0.034825187876427
0.012064483005219 0.070956085105662 0.113362808789586
0.046498349733099 0.062627609339203 0.103935489224967
0.012512900986599 0.094016631618241 0.101764912185404
0.034463232261432 0.081024224132459 0.110084510949817
0.006021390419432 0.082710186234744 0.086931915472935
0.043818248874904 0.073049325628193 0.108097818731933
-0.055788567840652 0.082250998369642 0.016894905758865
-0.027396693981651 0.132491984363553 0.056580044040270
0.031998543602493 0.043281761994348 0.082299409221232
-0.034822820351111 0.139054863838298 0.029994517090588
-0.003089523068399 0.103752281708831 0.065529926875119
-0.005529126841233 0.157842880719736 0.019462794120287
0.040073037016264 0.100201213145278 0.080762903044402
0.050744877518109 0.047416265903557 0.083406948100916
-0.023741438004851 0.145379050818933 0.012929163752888
-0.034846046174003 0.127805705322698 0.039356876378084
0.031348878440784 0.110268880517756 0.081973238605725
-0.042922987167591 0.127336259055247 0.046009157955164
0.058150843088131 0.083099522758797 0.055533366899613
-0.019288510538456 0.115447465528963 0.039850381270588
0.028639893200121 0.047861896665305 0.084445443513980
-0.019088479619629 0.092412947414914 0.042885372938197
0.027157400376957 0.134943504217825 0.070056461240832
0.045974565927905 0.049838756665177 0.077883708819715
0.042797377753665 0.152051578441913 0.033931563254234
0.069013634842759 0.104462129036225 0.084879281544991
-0.007700748732406 0.069080531304629 0.093116077697146
-0.058637756306852 0.094040076547803 0.042110789991521
0.026923668000224 0.075482105005394 0.090238680612468
0.042043895048085 0.094660809037384 0.092563097607420
-0.010234627510964 0.135311212115329 0.073430547797502
-0.024317390033222 0.103432108306487 0.066316781989123
0.011182451719859 0.086009839149946 0.096031062992659
0.023929239032296 0.078426567234553 0.111991319047082
0.037685352164588 0.032440316324764 0.087000836345445
0.041161524748290 0.059745629155785 0.087971543339466
0.052804468749112 0.080578358772729 0.088664564052154
0.033488063695048 0.090788597959071 0.073261908862557
0.028194756625951 0.081446508603273 0.091192737849928
-0.010893639475531 0.113786848422124 0.050934369560685
-0.003598085231692 0.108629581207934 0.067529453861733
0.052061620762059 0.079327967401461 0.097786808316775
0.015373412864073 0.162624064003380 0.009693529869711
0.015509451300591 0.132610935596075 0.036495813801620
0.016184363382886 0.094940233002246 0.092581498699831
-0.000571615380860 0.025372841519853 0.082435441086572
-0.030038076059210 0.091195082414044 0.050744248031083
-0.016958807559553 0.126930233149681 0.026406508077244
0.000053409398098 0.171595273815098 -0.026920061523257
0.012297912340378 0.144575623651576 0.030315331366201
0.063561779813877 0.107037737601525 0.085281663258667
0.023472053239422 0.072292493600420 0.078492443603725
0.018713112743860 0.091156925912867 0.101117938697106
0.079446548507677 0.076191722136044 0.094170219161530
0.062272048247305 0.037872059806613 0.075495650903703
-0.050544623905731 0.119749026284842 0.037712148944343
-0.002026037534454 0.074666935446397 0.055574192342624
-0.030758440502953 0.096728983983262 0.031597005527565
0.006892305614608 0.185138377192697 0.027123987392493
0.020560401481984 0.109252659130747 0.074088729418520
0.041863331701269 0.111462251621215 0.086137613261785
-0.051317627788152 0.045094710667181 0.046587195088570
0.044238730949551 0.054212283186078 0.081804490376103
-0.018134927665791 0.093732778838268 0.066967870821253
-0.029091693372791 0.097995568720190 0.047867031744528
-0.040340177818736 0.044689265067309 0.027740071729160
0.032675621569549 0.093440839564224 0.091677872510358
0.004743973040605 0.105577426772280 0.065172985784983
0.018172108037924 0.045399263617034 0.094811223763032
0.087928854803569 0.054520612621948 0.089334708564712
-0.014178761610677 0.074612730372634 0.058776075357260
-0.032174576825688 0.118272921511221 0.040739172785276
0.012163244507473 0.138995235641142 0.087829701551180
-0.029841999171528 0.119164820160116 0.024177976035667
-0.009712091319608 0.090528032305647 0.066472518605840
-0.006788062359469 0.041303036261660 0.052638425278014
-0.036091351700704 0.072592548200154 0.012012830134071
0.005891763015472 0.145836722490788 0.035478133273299
0.053069563197800 0.064323953979363 0.103563735008584
-0.028408807794212 0.155485004288757 0.024883257606672
-0.031271682083649 0.039853747713070 0.034657560477193
-0.000824419395531 0.040424630012527 0.077704700552600
-0.022131075717950 0.086968528112882 0.036514131206744
0.051011403674300 0.063895366821732 0.099148137379662
-0.031754261013911 0.112528717176917 0.041135049945227
-0.039917917520064 0.140588530447480 0.046194440814209
0.066419089778327 0.105861671127208 0.091964604224588
-0.011283467595397 0.132691274380732 0.021179157478872
0.014024444606889 0.082242690350585 0.068312741844905
-0.043072614402648 0.126280252313686 0.040132326191353
0.030585158735984 0.174875339192288 0.002863503117875
0.004779284248700 0.098762285163739 0.052293537762115
-0.022936631507999 0.150291507641112 0.047746799131722
0.035221742700950 0.051742157683304 0.080092410915595
-0.002027894555912 0.056341321885681 0.057144504264569
-0.003691304293201 0.126681706512530 0.040112981536456
-0.001500234402401 0.087540787046444 0.050034799965975
-0.023215244081770 0.122023958575613 0.038839626867488
0.041939872123912 0.098445505471831 0.082415813131256
0.037649451202722 0.058663816561293 0.082216952982724
0.002067397165475 0.039019046686287 0.077182238680908
-0.019255174682759 0.078683282273000 0.048530181275953
0.005751134988614 0.023227373803989 0.071289010945542
0.026630596546170 0.048274206975544 0.098512353291605
-0.038772942902104 0.117861316221898 0.054467331389854
0.013985651095852 0.104815383190195 0.075262357657101
-0.050960005092242 0.111241886067582 0.048223892083031
0.038037032147402 0.172524958613703 0.005900546637981
0.025071139484944 0.044672471031125 0.079709547716708
0.012446288655012 0.062409811796457 0.085380653347529
0.009848992632784 0.086737382727563 0.086024794749829
0.013689484170287 0.171858737326775 -0.040027482680828
0.020091624657788 0.041637639236637 0.071396476346790
-0.003514657796199 0.081076635172325 0.079194022487642
0.006440768642841 0.161320574546142 0.001739984773239
0.015558594435560 0.104290225533038 0.053305144328199
-0.013994995861781 0.143012157596822 0.022814429075640
-0.046144632211907 0.159873516885299 0.009316581796397
0.035884956528637 0.089340520148726 0.100881024171117
-0.000804395702596 0.139395478758634 0.052568218919864
-0.048473849381992 0.130378260788444 0.062203667788672
0.050345423678963 0.093363247065288 0.083887436827582
-0.028378520465907 0.089276361422610 0.053477679308403
-0.042432416239613 0.042684025328213 0.060740601705865
-0.040963132886189 0.138346557575559 0.035446313996077
-0.040654909064364 0.149296487249491 0.024388083091808
0.062118980685945 0.045111735957270 0.095266617629140
0.074376729883572 0.035655044877271 0.062117254481263
0.087271154632399 0.077080969137881 0.081297089045163
-0.021469810825582 0.129517678438394 0.035443802200144
0.018598281116999 0.197498421468169 0.019639073319132
0.016131196902699 0.081888438088976 0.079410099836045
0.059887243351251 0.058186453910884 0.094557637448960
0.053702054566673 0.065276858132180 0.098658166169837
0.045837903340375 0.046011099579820 0.093827025331606
-0.010108090782503 0.120435366640092 0.045824036132259
0.056181032813614 0.061052263263004 0.100983467661068
0.017015135262066 0.046311603020071 0.086311921107270
-0.042506882665075 0.136811672411858 0.036775934389913
0.041976132151929 0.072697914268775 0.078022079578251
0.094876243543366 0.061822028503517 0.102026843873851
-0.019490526248640 0.051638167458466 0.068754963904442
0.065220056715467 0.108246176416965 0.055903719979888
0.016022453815707 0.097637298930551 0.086686296661169
-0.056806412686282 0.134206598483990 0.036051547216243
0.004796760337174 0.094757716994873 0.063499560595665
-0.026970251293007 0.080258017819379 0.043742917422340
-0.007712929011282 0.164716500621127 0.019791175559643
-0.040136116208670 0.117938050476284 0.026496516206787
0.027898962833361 0.166550069368022 0.022957190364014
-0.039593211626608 0.154786696424841 0.042620644982225
-0.024683201328268 0.101946397609651 0.053045538427413
-0.047354241073664 0.101100884525765 0.032827264675633
-0.000927849574363 0.085285170346697 0.042321776260662
-0.025697765426701 0.132929307386704 0.051116429715456
0.017912733871798 0.129733050350137 0.053586591884552
-0.019822291413500 0.079290474034490 0.061306588944565
-0.021513878230844 0.171531104005992 0.015345558271485
0.029403813699967 0.175069312635562 0.019246114705806
-0.022334369429088 0.140948032635116 0.038626553897545
-0.007228277714923 0.085087198957869 0.079199945041843
-0.022444567625761 0.163712112881005 -0.010118497423748
-0.014854290431765 0.130258316463408 0.033019005092589
0.038671852960265 0.106074712724376 0.073509227751300
0.055580438928634 0.051497891731742 0.076247543402080
-0.043781931598562 0.119224295121419 0.028564200371039
0.002162041026356 0.106396161952001 0.094082470200748
0.043723672181562 0.133222521504414 0.072475465007042
-0.015200997967406 0.023980336694089 0.083950949446905
0.059815366935615 0.080070868168086 0.074857229538366
-0.014543341875042 0.171169207594631 0.013970943259567
0.041753127872274 0.100899580700058 0.082014985062190
0.013200629234258 0.062284469040501 0.100286433976101
0.021764612668494 0.054289745946102 0.070212259586218
-0.006069503542448 0.073680088986175 0.065707902557931
0.010162672080879 0.096883103651820 0.062797195579843
-0.020537292495474 0.112064161737334 0.055496816455539
0.044572155078542 0.128620082099018 0.060684584562294
0.041301761667989 0.083500056272795 0.109824942587437
0.038797715548322 0.073532742688104 0.095256977452201
0.039569132101751 0.111068722460555 0.094563712113813
-0.004167382526113 0.103998057221149 0.037815963597392
-0.006881854468945 0.103175132458153 0.063313829540350
-0.031964361358608 0.159371231654194 0.052358400466442
0.045240283143036 0.063256084042291 0.099819268431156
0.066651096348053 0.078686251697001 0.067656607303314
-0.018243533232444 0.132075909455670 0.023906750911710
-0.022245678018586 0.139687699566615 0.025106393420628
0.058452306581131 0.092938646261475 0.082378331487955
0.047581057067260 0.116523264974504 0.069560886775643
-0.015007022958666 0.073227186694289 0.061419832997048
0.010355380096876 0.120256952743525 0.062552896388829
-0.044564932364962 0.156635166058252 0.024862692752206
0.007085665057927 0.060489784753289 0.093852261232679
-0.012380778520237 0.087124974222548 0.089261374350812
-0.012307906775369 0.109585167745779 0.031034913746585
0.059097669752581 0.112193952025187 0.056831844511269
0.024206802671848 0.176488387300805 0.017810532240091
-0.019374987517999 0.052777040610909 0.051408770563057
-0.060141780754335 0.135433169692486 0.028965537888514
-0.002876333516446 0.046925812419816 0.058771623484566
-0.009425422599700 0.031605576478510 0.036669753358882
-0.012445765855412 0.114010541881818 0.045217921380580
0.092598983972862 0.087555100130067 0.094869307665339
0.010454417713666 0.072915951444785 0.108337132086915
0.016140370924407 0.099232179678005 0.082420928782230
0.071338830218124 0.073303440592959 0.086516605901201
0.017108747404193 0.049780108113425 0.074947331785115
0.037031992352662 0.115394143052479 0.077092484326442
0.043949959126954 0.110626850911664 0.073172295059629
0.053196754913158 0.109131808995585 0.082850628382068
-0.002867912463449 0.116783968710209 0.049218293133764
0.037521685531847 0.180209579157567 0.012704216216550
-0.061061649520681 0.115778540102276 0.039219537749091
0.050827857274507 0.051349953170323 0.091270768362495
0.042253908430699 0.075316476446038 0.091143131054899
-0.014991265896546 0.052889550986375 0.056431182486102
0.023027105411220 0.038016290019572 0.076189638611441
0.074839443729022 0.080477791356862 0.092756952976073
-0.007799541798303 0.058884208870120 0.043512511404094
0.075160060870186 0.090575316273264 0.049811244083342
-0.018077965433960 0.102186155772208 0.037962557984321
0.002464741431780 0.055436538040774 0.083066070024219
-0.020015132788363 0.090681225230753 0.039847151189027
-0.031078857765095 0.069393826692168 0.050651417248481
-0.040990793121634 0.148708491862470 0.027964113304612
0.018069058599379 0.076397946723703 0.073964280654655
0.034626335693193 0.115800952645430 0.068825290461467
0.003790525449020 0.118457003582370 0.040412599056426
-0.000712400659559 0.180819862494585 0.029432910229474
0.067674446302125 0.049120575237472 0.097268433603390
0.023055470214699 0.169805637054394 0.011121821563559
-0.048437930636832 0.151541532356546 0.030959621169412
-0.014331173601378 0.144872473979562 0.025560137175114
0.027517013974263 0.108158932371735 0.065825154862005
0.053399755661313 0.073237728727733 0.104615489320055
0.039973935863811 0.045110909000482 0.078876076710942
-0.044641672908313 0.147561853393709 0.043771160372985
0.070284181124110 0.100478119777579 0.063369925725753
0.044581335145926 0.163130608238218 0.020457785820315
-0.001251683997487 0.115774256376209 0.070000909536901
0.040441472514984 0.055560093350860 0.095474699228076
0.014997094625410 0.049427325673452 0.092523696761183
0.004663982815173 0.110011547423143 0.074945632263676
0.058281092818070 0.084613112596019 0.100860945156196
-0.035006213525702 0.042505791307012 0.042373458323671
0.024464881387055 0.133755345283522 0.067985926096210
0.000074906043960 0.075323961428736 0.075188781067323
0.018999104358509 0.162834874816422 0.022173000533211
0.062868877072502 0.077903251517652 0.072866478531557
0.070240540763994 0.106697391921399 0.073741603916713
0.070319649145165 0.048815620663861 0.059758040222630
0.044935920017441 0.046306668326181 0.075756608494256
0.034445448310730 0.117999508842445 0.086202661261593
0.064986673298808 0.049801997444041 0.078082158705738
0.053971559807933 0.071001656460514 0.108117697233526
-0.016025227825365 0.050783333579810 0.042730399213225
0.009727132920984 0.126440407736498 0.077391061564191
0.027107597623241 0.117328063327036 0.086805281088934
0.010969562470402 0.077497412447704 0.096821241571234
-0.002226681781461 0.171744443375011 -0.040198285167562
0.032635611757820 0.031059629085402 0.092653501434110
-0.018327749911432 0.080961369558850 0.037025069493863
0.061954513365674 0.072620919098345 0.065823225701869
-0.045931565909104 0.130630074363871 0.047979817701977
0.053619281242541 0.103847946478476 0.084551663785548
0.023452691782955 0.097876471783990 0.096840769284980
-0.031829315984709 0.113513334011892 0.052346081818216
-0.030765802000040 0.092436287472342 0.029822637426457
0.032394023584843 0.064456333997974 0.075842158778402
-0.035362343446004 0.087186636316127 0.054220187053565
0.054875047744620 0.075190297660902 0.108078696430788
0.045773065591324 0.032246635707849 0.098285710875449
-0.004783715129312 0.046934534453816 0.095921261626444
-0.025133331699493 0.049469211093561 0.082157439642481
0.002658560611296 0.161340188356012 0.001794466003341
0.017673841725239 0.066818032869849 0.088042841169916
-0.024519009109277 0.075254796530156 0.054805573645889
-0.062273530268850 0.109287899192221 0.055760293178380
0.071844270746127 0.080709881814426 0.077069867739627
0.033983587830740 0.140635411612176 0.059776562352746
-0.013318146164131 0.138614587180692 0.039549644436744
-0.016540025193698 0.094858685900155 0.069845216739747
-0.002289775671135 0.053555999339893 0.094467660041867
-0.025213436295294 0.121859786026674 0.049786648958541
0.052376961668255 0.079367348228389 0.087572722793003
-0.040099533391609 0.086061270309881 0.039390114896156
0.012370313324480 0.037477629299694 0.088922013616688
0.034367858449577 0.093306579488552 0.087202168433116
0.072510328129453 0.057829602178145 0.062931778236776
0.034468001766122 0.086457444623302 0.096189518402785
-0.043047276394000 0.115827243892669 0.030714756137042
0.003234749043073 0.039998568875036 0.069690154274073
-0.061908642339210 0.131025755201074 0.025693946725440
0.019852057556131 0.085998447637483 0.076773134403735
0.079653082396652 0.054395161048574 0.102085862104609
-0.032902330390028 0.119464320849505 0.047694785868352
-0.022339369596571 0.128731075388125 0.049726284247446
0.012355399585164 0.059089919656073 0.085601401686380
-0.067692796678181 0.147444491569799 0.047106981036177
0.052842441987208 0.090607232292248 0.072815673089674
-0.032965554015636 0.122108524028803 0.021015304699166
0.025370710494935 0.059174376116403 0.069797022913465
0.004652206450474 0.180242736689352 -0.024965439862393
0.061036069536596 0.092830214300339 0.065969794358732
-0.015484145768627 0.082266166542181 0.087995198740318
-0.032923867393478 0.062647262033139 0.045882848878891
0.007850012066428 0.106707452213602 0.067358160175996
-0.026216257183009 0.031091919521416 0.064806775211991
-0.027013032071163 0.090886636728694 0.056517931045052
0.008249028085491 0.103196364894044 0.075801079572461
0.014769485598798 0.070331276684265 0.096762287465983
0.028797671550613 0.114668649093497 0.105418054160071
0.013305925829890 0.061555856799075 0.074826775906578
0.027122078310259 0.031383685776063 0.066649964768951
-0.016300044229027 0.161649488307249 0.036245344502115
-0.022613759095096 0.038621965368260 0.043622797706204
-0.006993205383395 0.124965557471230 0.053042009713073
-0.004419223242269 0.151133085210329 -0.036910819643148
0.045225354432626 0.106296043375138 0.085026721060890
0.049002422507258 0.106135557499703 0.077051662112076
-0.018054920635040 0.092994493214349 0.056656460433295
0.087936158854749 0.078959210275696 0.089749355256239
0.023923473661545 0.067396344872894 0.097421000321107
-0.022358247318747 0.125528906223019 0.040475852826807
0.061133252936007 0.031395184730400 0.105414710465462
0.027933932570764 0.160141225845881 0.032019464297733
-0.054639147117598 0.094414580230337 0.042853858256844
0.021389929746425 0.093390850567210 0.079839292528477
0.078123930527729 0.074145590436177 0.060985664728984
0.045403099634730 0.070726822231725 0.084723242324549
-0.028995960540922 0.084308227226920 0.023858159727123
-0.002714812706855 0.168879967828746 -0.043833733125434
0.024979630778161 0.104199262588640 0.062784071698696
-0.028088550237857 0.117005470401719 0.041543303099847
0.007348151038108 0.090600762066456 0.069461347482109
0.036181157232177 0.171699696432006 0.018570482540141
-0.014921388936037 0.033656263319396 0.084858863244470
0.004096617276568 0.091838372918062 0.074263253490533
0.048716078718997 0.073738019884230 0.070238782150954
-0.015900374871710 0.112937166469760 0.035559955739654
-0.017622588098023 0.042958120593754 0.063602579705722
0.016715720622047 0.185765537884900 0.028430098462604
0.013048435593677 0.046424529839647 0.073652430239723
-0.005593544404431 0.134088792843716 0.020389092704796
0.052048506725039 0.065376126885079 0.078944991568452
-0.000367299625933 0.043680630643891 0.083255150267996
-0.008871179393617 0.072294502711427 0.076009757804599
0.030979634408484 0.033767782754968 0.093444086987449
-0.036175855914308 0.127236114592844 0.030760566221385
0.004681052916313 0.164118233159181 0.003238465322114
0.024859319112771 0.099771079198932 0.073871275724923
-0.041726897166455 0.104461055246124 0.029001679973740
0.038451488159856 0.063047259784642 0.085659327602704
-0.013630450593938 0.102127854961524 0.059862045916275
0.000311175109565 0.135132282090873 0.013262274780569
0.038379913587360 0.105294902311599 0.078772126957412
-0.033610945759070 0.139209834128191 0.028239241553722
-0.007808401668875 0.109058516914850 0.052044904081598
0.042549742782073 0.088083242945979 0.110121193828974
0.015067511356714 0.112552198731269 0.076375083488400
-0.012509654337632 0.162795231947239 0.006127086317891
0.000896245661651 0.105244618525270 0.066219553439900
-0.013474621161316 0.161823183280065 0.020329739865089
0.012146241084097 0.169117079233615 -0.030155817360124
0.020740748769097 0.074211367943181 0.097961811435741
0.041380194888401 0.089611581763087 0.074983478031493
0.017625674035657 0.100822798290011 0.071268967175331
-0.016741969680341 0.108362159450707 0.053491667267069
-0.017527509749395 0.076230642209260 0.054120792302843
-0.051073336799215 0.143818145161792 0.022263932159817
0.021414770384340 0.125626457290079 0.067556807283728
0.007097863048029 0.072982442244604 0.072816850840781
-0.008051404421890 0.129214696049783 0.056944022389203
0.053170816088020 0.052062341072064 0.095735562821095
0.044029149898184 0.107482003704513 0.077472974341028
0.051781458796711 0.136929548918724 0.079825372925060
0.066977151274363 0.082750121034016 0.094248300942801
-0.058693221578630 0.140299366459055 0.036749781119847
0.000248140703635 0.064902504579281 0.071701900102421
0.029241090270664 0.139015069561632 0.064456584142391
0.045898525034592 0.058735506734508 0.093681142233642
0.046899287175104 0.183677815150648 0.014308433314543
-0.021632456625710 0.043758676642509 0.024022780649902
-0.019322858971174 0.172409253253819 0.003756102378234
0.032696586528888 0.168716534893188 0.020252610664852
-0.030885097725184 0.057422629988456 0.052008247010756
-0.008492896122752 0.097962813137059 0.088281776257660
-0.025025425983924 0.041352367693067 0.052841254024685
-0.023010796930156 0.080393710433300 0.063273158958108
-0.045611798223632 0.100320014149496 0.047510762931314
-0.014714836274829 0.077856199735838 0.052643482359425
-0.050630218949012 0.094747233003286 0.038273111413528
-0.013676780794747 0.127666450939338 0.038760401048775
0.008503238197311 0.177282494294602 -0.006826554009682
-0.025475021053655 0.067012316826726 0.086129282038791
-0.003440087815027 0.067032502328215 0.089289966403045
-0.040775132885850 0.070961087273669 0.029112507692613
-0.019595471827775 0.100934305235400 0.073829643543103
-0.044446079121849 0.139956062476256 0.053503310967232
-0.024103166292410 0.048348332186800 0.087003052661049
-0.028301152072459 0.120274714916435 0.043542107361919
0.043566282592850 0.189516261619980 0.016124278352677
-0.034339473760867 0.107715163969399 0.014102750492067
-0.054847360910292 0.095393758158296 0.015369670252857
0.008572174635316 0.020673557073746 0.090174809705437
0.024532631227599 0.047305640153225 0.075631676774300
0.051417331946729 0.059660798569737 0.094983442362005
0.020516589485918 0.119466804686292 0.079823236739619
-0.046800920018927 0.123255035292539 0.022465353663452
0.020616252644012 0.110724680524749 0.081826565951118
0.044166912482142 0.088253869648789 0.076549264146488
-0.021688134629528 0.082462499740123 0.041656294997469
